ncols         328
nrows         31
xllcorner     119.003198213
yllcorner     -3.51954494355
cellsize      7.4985002999418e-05
NODATA_value  -9999
3.491518 3.519728 3.553083 3.592724 3.618798 3.649725 3.640551 3.571723 3.488573 3.46997 3.518159 3.655314 3.880164 4.030965 3.965016 3.801647 3.695019 3.659125 3.683377 3.766293 3.841576 3.794113 3.677009 3.566661 3.322835 3.174571 3.216314 3.423121 3.672751 3.868053 4.003184 4.43981 4.540794 4.357899 4.326637 4.678727 5.204522 5.438067 5.397967 5.410621 5.747177 6.434345 7.1983 7.718513 7.878709 7.866222 8.02512 8.271408 8.187412 7.695602 7.581416 7.287878 6.881929 6.669548 6.827254 7.229603 7.654069 7.84466 7.880324 7.87795 7.802554 7.473623 7.06408 6.412132 6.231278 6.752399 7.682922 8.646202 9.270477 9.171338 8.758202 8.823765 9.62792 10.26876 10.56615 10.70351 10.71369 10.36734 9.786356 8.880516 7.825857 7.428499 7.491388 7.658642 7.842909 8.287911 8.790517 9.108078 9.259394 9.475932 9.949338 10.26726 10.22954 9.617213 8.716239 7.960534 7.578569 7.419709 7.304065 7.327894 7.233712 6.900268 6.676055 6.884185 7.455024 8.005685 8.469144 8.813595 8.89281 8.558632 8.003 7.288045 6.540108 6.124494 6.117395 6.38404 6.74492 6.949395 6.915338 6.884064 7.106646 7.433229 7.554009 7.375027 6.854883 6.028552 5.382585 5.213232 5.177924 5.30473 5.302724 5.161828 5.06662 5.021745 5.074674 5.159569 5.227939 5.221045 5.094108 4.928936 4.874355 4.940406 4.853199 4.679862 4.507185 4.427588 4.433474 4.422667 4.303162 4.158937 4.134356 4.237597 4.348633 4.330568 4.237869 4.111931 4.033452 4.074623 4.201825 4.293282 4.24544 4.080608 3.896313 3.701999 3.478117 3.325678 3.325487 3.438173 3.536267 3.535235 3.518334 3.50891 3.466074 3.425359 3.40572 3.38782 3.333204 3.247772 3.170541 3.172339 3.249457 3.188953 3.056531 2.997948 3.018689 2.928811 2.778389 2.691972 2.710989 2.774281 2.992628 3.304266 3.425924 3.172138 3.020172 3.137506 3.259781 3.250426 3.164391 3.020266 2.810198 2.641044 2.560056 2.572181 2.667454 2.812101 2.936102 2.970036 2.869212 2.700809 2.584889 2.58328 2.639055 2.64793 2.541618 2.170284 1.597459 0.7743568 -0.2369962 -1.14032 -1.646148 -1.843622 -1.913127 -1.959443 -2.000522 -2.038794 -2.074709 -2.108535 -2.14047 -2.17067 -2.199262 -2.226354 -2.25204 -2.276404 -2.299524 -2.321471 -2.342316 -2.362122 -2.380954 -2.398873 -2.415938 -2.432208 -2.447738 -2.462584 -2.476798 -2.490432 -2.503536 -2.516157 -2.528342 -2.540133 -2.551572 -2.562697 -2.573546 -2.58415 -2.594541 -2.604745 -2.614788 -2.624689 -2.634465 -2.644133 -2.653701 -2.663179 -2.672571 -2.68188 -2.691105 -2.700246 -2.709299 -2.71826 -2.727123 -2.735883 -2.744534 -2.753069 -2.761482 -2.769766 -2.777916 -2.785924 -2.793784 -2.801487 -2.809025 -2.816391 -2.823574 -2.830564 -2.837351 -2.843923 -2.850269 -2.856378 -2.862237 -2.867836 -2.873167 -2.878222 -2.882994 -2.887481 -2.891682 -2.895601 -2.899243 -2.902617 -2.905737 -2.908617 -2.911275 -2.913732 -2.916009 -2.918128 -2.920113 -2.921985 -2.923767 -2.925478 -2.927138 -2.928763 -2.930368 -2.931964 -2.933562 -2.93517 -2.936793 -2.938437 -2.940104 -2.941796 -2.943513 -2.945256 -2.947023 -2.948815 -2.95063 -2.952469 -2.954332 -2.956218 -2.958131 -2.960072 -2.962045 -2.964055
3.405972 3.454249 3.502664 3.56851 3.620968 3.647357 3.619043 3.543739 3.474295 3.468689 3.519392 3.641616 3.85359 4.0173 4.018163 3.921516 3.851396 3.815546 3.804934 3.818339 3.780691 3.68542 3.589404 3.504261 3.349708 3.206014 3.133572 3.172011 3.336451 3.619306 3.971081 4.344303 4.343225 4.031892 3.910944 4.255196 4.851281 5.214736 5.252126 5.148312 5.146472 5.384793 5.820794 6.326512 6.817521 7.110972 7.25811 7.287574 7.18378 7.068861 7.097718 6.893768 6.460854 6.202037 6.370678 6.808033 7.151189 7.209201 7.220373 7.421384 7.718968 7.686893 7.402212 6.959463 6.790522 7.202204 7.901125 8.595173 9.033342 8.812503 8.395849 8.590675 9.562799 10.25612 10.55106 10.74489 10.89771 10.62625 9.977566 8.73971 7.36135 6.774616 6.822373 7.082788 7.374851 7.694178 8.037271 8.271973 8.420937 8.580338 8.781218 8.885337 8.827014 8.568626 8.325929 8.111423 7.776535 7.383358 7.221133 7.364172 7.499099 7.401477 7.3119 7.460446 7.76312 8.099106 8.399158 8.586643 8.552695 8.23545 7.68485 6.910608 6.092931 5.786474 6.040046 6.495817 6.975979 7.248766 7.157517 6.934824 6.910426 7.259037 7.327289 7.007092 6.350181 5.511617 4.957192 4.880285 5.023051 5.219176 5.288638 5.247248 5.186582 5.03745 4.92976 4.925943 4.979178 5.002535 4.910024 4.77208 4.733956 4.781694 4.742443 4.605891 4.4689 4.44668 4.484168 4.452825 4.265102 4.090709 4.049878 4.125 4.209207 4.228335 4.182535 4.08548 3.984957 3.966003 4.037914 4.106195 4.063426 3.926059 3.772733 3.61122 3.430367 3.294336 3.275557 3.33292 3.358939 3.336418 3.355456 3.37872 3.312009 3.258587 3.248973 3.268313 3.25252 3.167728 3.101597 3.127524 3.237639 3.188402 3.095199 3.067613 3.043343 2.910384 2.787673 2.743923 2.73694 2.772619 3.019008 3.381795 3.514371 3.257709 3.163394 3.41863 3.6668 3.613965 3.407724 3.199445 2.984466 2.736131 2.574432 2.591472 2.762872 2.958086 3.014451 2.954709 2.832686 2.705137 2.645127 2.68049 2.747412 2.715242 2.509601 2.094014 1.497077 0.6309532 -0.4050518 -1.263807 -1.669943 -1.814299 -1.872772 -1.920292 -1.964001 -2.004862 -2.043229 -2.079366 -2.113481 -2.14574 -2.17628 -2.20522 -2.232663 -2.258701 -2.283418 -2.306894 -2.329201 -2.350409 -2.370586 -2.389795 -2.408099 -2.425556 -2.442225 -2.458162 -2.473419 -2.48805 -2.502104 -2.515629 -2.52867 -2.541271 -2.553473 -2.565314 -2.576831 -2.588055 -2.599019 -2.609748 -2.620267 -2.630598 -2.640759 -2.650765 -2.660628 -2.670359 -2.679964 -2.689447 -2.698812 -2.70806 -2.717189 -2.726199 -2.735086 -2.743847 -2.75248 -2.760978 -2.769339 -2.777558 -2.78563 -2.79355 -2.801313 -2.808912 -2.816342 -2.823595 -2.830664 -2.83754 -2.844216 -2.850681 -2.856927 -2.862944 -2.868724 -2.874258 -2.879539 -2.884562 -2.889321 -2.893815 -2.898045 -2.902012 -2.905723 -2.909186 -2.912411 -2.915413 -2.918205 -2.920805 -2.923232 -2.925504 -2.927642 -2.929664 -2.93159 -2.933437 -2.935221 -2.936959 -2.938662 -2.940343 -2.942011 -2.943675 -2.94534 -2.947013 -2.948696 -2.950392 -2.952105 -2.953833 -2.95558 -2.957344 -2.959127 -2.960931 -2.962755 -2.964602 -2.966474 -2.968374 -2.970307 -2.972276
3.427181 3.488589 3.533578 3.596938 3.656888 3.691117 3.661352 3.58404 3.520518 3.514612 3.555433 3.628186 3.774249 3.898782 3.934601 3.912593 3.897237 3.887511 3.86895 3.809968 3.683491 3.57057 3.506181 3.448775 3.33824 3.221875 3.107691 3.026594 3.039036 3.206553 3.490929 3.74914 3.738709 3.507089 3.460558 3.841961 4.483923 5.007528 5.2643 5.23216 4.981294 4.739894 4.789077 5.113566 5.688839 6.061593 6.08555 5.866827 5.654097 5.707266 5.887406 5.845885 5.573595 5.495762 5.787755 6.258645 6.604116 6.778453 6.992023 7.374037 7.737214 7.650454 7.322458 7.044616 7.072903 7.522536 8.077318 8.570646 8.916225 8.778455 8.567455 8.8779 9.722994 10.25675 10.42965 10.49661 10.48917 10.07687 9.605265 8.435688 7.166403 6.61152 6.618875 6.904952 7.403696 7.639268 7.903144 8.034536 8.019585 7.872943 7.674052 7.572002 7.706253 7.956588 8.22148 8.23527 7.846255 7.389867 7.333272 7.650924 7.986718 8.163094 8.265838 8.337771 8.329066 8.311638 8.303679 8.226789 7.999901 7.687751 7.174076 6.406646 5.620134 5.464946 5.961401 6.448241 6.926335 7.165997 6.993308 6.665363 6.59032 6.762051 6.765183 6.432056 5.810951 5.097784 4.68248 4.684003 4.901141 5.158771 5.318473 5.355056 5.281033 5.040352 4.804974 4.694884 4.691507 4.71243 4.638026 4.519957 4.502717 4.567907 4.579067 4.496347 4.394156 4.400495 4.438026 4.400715 4.171987 4.012569 3.987071 4.059865 4.148908 4.186579 4.165261 4.083884 3.965712 3.896429 3.904009 3.928285 3.883212 3.778726 3.659727 3.530505 3.386057 3.275309 3.245347 3.249189 3.211122 3.173623 3.213395 3.252622 3.180151 3.109267 3.104317 3.155703 3.180855 3.092689 3.0605 3.103046 3.217718 3.170294 3.090355 3.053699 2.975518 2.826638 2.753111 2.759811 2.738577 2.741179 2.955615 3.284413 3.403841 3.232958 3.317193 3.787452 4.176437 4.049576 3.701023 3.430021 3.216319 2.894264 2.605814 2.517056 2.655214 2.900796 2.946299 2.884315 2.797074 2.7487 2.758882 2.812946 2.848048 2.761769 2.462204 1.939964 1.236419 0.3221709 -0.6441763 -1.364043 -1.669771 -1.779358 -1.834985 -1.884279 -1.930225 -1.973317 -2.013856 -2.052085 -2.0882 -2.122367 -2.154726 -2.185398 -2.214493 -2.242109 -2.268335 -2.293253 -2.316943 -2.339478 -2.360926 -2.381355 -2.400829 -2.419409 -2.437154 -2.454121 -2.470364 -2.485936 -2.500887 -2.515264 -2.529114 -2.54248 -2.555402 -2.567918 -2.580066 -2.591877 -2.603383 -2.614609 -2.625583 -2.636324 -2.646853 -2.657185 -2.667335 -2.677313 -2.687128 -2.696787 -2.706295 -2.715654 -2.724867 -2.733934 -2.742856 -2.75163 -2.760256 -2.76873 -2.777052 -2.785219 -2.793226 -2.801071 -2.808751 -2.81626 -2.823594 -2.830748 -2.837715 -2.844491 -2.851066 -2.857436 -2.863591 -2.869526 -2.875233 -2.880706 -2.885939 -2.890929 -2.895671 -2.900166 -2.904413 -2.908416 -2.91218 -2.915711 -2.91902 -2.922118 -2.925018 -2.927735 -2.930284 -2.932681 -2.934944 -2.93709 -2.939135 -2.941095 -2.942984 -2.944815 -2.946603 -2.948356 -2.950084 -2.951797 -2.953499 -2.955197 -2.956896 -2.958598 -2.960307 -2.962025 -2.963754 -2.965496 -2.967253 -2.969026 -2.970817 -2.97263 -2.974466 -2.97633 -2.978226 -2.980159
3.547142 3.619975 3.648023 3.673154 3.717035 3.747831 3.712963 3.628692 3.55971 3.530344 3.529819 3.55766 3.630885 3.691027 3.713575 3.724408 3.754067 3.78608 3.782863 3.711854 3.589344 3.515536 3.475517 3.40394 3.280877 3.182804 3.083436 2.985328 2.91129 2.918475 3.004202 3.095354 3.086399 3.005039 3.086538 3.471058 4.004426 4.536181 4.983357 5.141358 4.837854 4.346969 4.249465 4.368657 4.841719 5.082338 4.902893 4.46791 4.126801 4.196219 4.4962 4.706483 4.760283 4.932442 5.288208 5.691682 6.010977 6.327608 6.751915 7.253114 7.577653 7.415205 7.112844 7.012097 7.194194 7.563929 7.951047 8.361414 8.762897 8.84925 8.938791 9.357727 9.935631 10.20082 10.21362 10.13879 10.01372 9.766644 9.265976 8.322459 7.445467 7.059289 6.94947 7.022235 7.384779 7.826624 8.209486 8.334618 8.137632 7.603333 6.981597 6.696771 7.036292 7.727302 8.289165 8.342909 7.901438 7.491248 7.604293 7.988755 8.307725 8.555811 8.710619 8.695726 8.488488 8.243579 8.045992 7.827871 7.49079 7.241159 6.756287 5.979389 5.175889 4.975798 5.339021 5.826968 6.257239 6.42466 6.211537 5.888051 5.849552 6.055727 6.183805 5.993868 5.469582 4.855223 4.532406 4.579725 4.803881 5.082456 5.293617 5.366684 5.272624 5.001811 4.719935 4.549112 4.492675 4.491851 4.428903 4.33361 4.325802 4.388827 4.404675 4.352361 4.283034 4.308622 4.328708 4.252023 4.071074 3.934928 3.90918 3.978174 4.068521 4.095183 4.066821 3.991451 3.876384 3.786147 3.742323 3.729735 3.703589 3.667673 3.613636 3.524618 3.405192 3.29904 3.222578 3.152961 3.070786 3.03046 3.084316 3.148259 3.113511 3.05931 3.04368 3.074119 3.106288 3.08255 3.089584 3.15825 3.246624 3.181482 3.098619 3.063457 2.995194 2.878032 2.837644 2.85248 2.799638 2.726188 2.806602 3.00973 3.115155 3.050191 3.263008 3.843727 4.31335 4.15267 3.742976 3.485254 3.349091 3.033492 2.636102 2.371397 2.367875 2.596441 2.776107 2.816192 2.770597 2.758808 2.797594 2.867116 2.897591 2.791012 2.434935 1.813921 0.9893453 0.01474047 -0.8706719 -1.439295 -1.659562 -1.745282 -1.800563 -1.851426 -1.899216 -1.944225 -1.986682 -2.026792 -2.06473 -2.100651 -2.134692 -2.166976 -2.197613 -2.226705 -2.254344 -2.280617 -2.305606 -2.329386 -2.352029 -2.373605 -2.39418 -2.413815 -2.432572 -2.450508 -2.467678 -2.484134 -2.499928 -2.515106 -2.529716 -2.5438 -2.557399 -2.570552 -2.583294 -2.595658 -2.607675 -2.619372 -2.630775 -2.641907 -2.652786 -2.663431 -2.673856 -2.684074 -2.694095 -2.703928 -2.713579 -2.723053 -2.732355 -2.741486 -2.750449 -2.759245 -2.767874 -2.776335 -2.784629 -2.792754 -2.800708 -2.808491 -2.816098 -2.823529 -2.83078 -2.837846 -2.844723 -2.851408 -2.857894 -2.864177 -2.87025 -2.876109 -2.881749 -2.887164 -2.892351 -2.897306 -2.902028 -2.906517 -2.910773 -2.914799 -2.918601 -2.922184 -2.925558 -2.928731 -2.931717 -2.934526 -2.937173 -2.939672 -2.942037 -2.944284 -2.946427 -2.94848 -2.950455 -2.952366 -2.954223 -2.956038 -2.957818 -2.959571 -2.961306 -2.963027 -2.964739 -2.966447 -2.968154 -2.969864 -2.97158 -2.973303 -2.975037 -2.976784 -2.978546 -2.980329 -2.982133 -2.983965 -2.985828 -2.987727
3.661933 3.761485 3.791026 3.784421 3.798435 3.825959 3.791827 3.68841 3.578445 3.501317 3.465519 3.467117 3.496126 3.516941 3.520265 3.53221 3.573359 3.62867 3.646551 3.606394 3.542044 3.509291 3.459896 3.352191 3.217773 3.144707 3.067236 3.005344 2.93694 2.879456 2.829857 2.778763 2.725084 2.70875 2.831914 3.125019 3.506684 3.940137 4.457896 4.757414 4.474906 3.86913 3.631459 3.851291 4.283712 4.379006 4.046133 3.51393 3.136612 3.203013 3.590965 4.040956 4.410835 4.760359 5.093575 5.353071 5.546251 5.854973 6.350266 6.927273 7.297454 7.253173 7.176823 7.308741 7.521043 7.610489 7.731338 8.012352 8.29748 8.474618 8.793633 9.367889 9.807789 9.978747 9.949527 9.798693 9.628247 9.50538 9.069397 8.345833 7.844224 7.637563 7.449457 7.34457 7.600255 8.087729 8.534259 8.693589 8.408034 7.607694 6.702507 6.275298 6.692565 7.580883 8.296186 8.424257 8.032713 7.6427 7.850962 8.090356 8.134109 8.173334 8.177012 8.068222 7.863513 7.667595 7.544847 7.442254 7.264863 7.020144 6.508459 5.707375 4.895835 4.592669 4.716904 5.001058 5.288151 5.37758 5.209335 5.023903 5.139521 5.527177 5.872391 5.842011 5.353061 4.749852 4.448272 4.486562 4.645474 4.869899 5.077783 5.182104 5.117826 4.882508 4.622163 4.450545 4.372078 4.345438 4.298495 4.246744 4.252126 4.288369 4.242168 4.173483 4.117365 4.163409 4.199965 4.145558 4.015732 3.8747 3.810846 3.851172 3.928735 3.929258 3.875033 3.79745 3.702587 3.622518 3.568891 3.545342 3.550721 3.588758 3.606497 3.565325 3.473067 3.361539 3.221454 3.079041 2.969357 2.912297 2.948799 3.027987 3.05787 3.048562 3.033353 3.028358 3.029747 3.03833 3.098475 3.19463 3.252284 3.189563 3.138764 3.152212 3.146527 3.069814 3.013439 2.975832 2.867852 2.700521 2.601886 2.644671 2.751295 2.776713 2.991498 3.502135 3.973403 3.883831 3.578578 3.449981 3.440665 3.144161 2.66275 2.27142 2.172135 2.403272 2.686582 2.8056 2.759715 2.724383 2.740716 2.828618 2.883566 2.788753 2.416776 1.736972 0.8206671 -0.2028379 -1.025536 -1.479447 -1.642314 -1.713757 -1.769358 -1.821554 -1.870913 -1.917592 -1.961752 -2.003553 -2.043145 -2.080671 -2.116259 -2.150031 -2.182096 -2.212558 -2.241512 -2.269046 -2.295245 -2.320187 -2.343947 -2.366595 -2.388198 -2.408821 -2.428523 -2.447365 -2.465401 -2.482685 -2.499266 -2.515195 -2.530516 -2.545273 -2.559506 -2.573254 -2.586553 -2.599436 -2.611933 -2.624074 -2.635882 -2.647382 -2.658594 -2.669537 -2.680225 -2.690674 -2.700895 -2.710897 -2.72069 -2.73028 -2.739673 -2.748872 -2.757883 -2.766706 -2.775346 -2.783802 -2.792077 -2.800169 -2.808081 -2.81581 -2.823357 -2.830719 -2.837896 -2.844884 -2.851681 -2.858285 -2.86469 -2.870894 -2.876893 -2.882682 -2.888258 -2.893618 -2.898759 -2.903679 -2.908377 -2.912854 -2.917111 -2.921151 -2.924978 -2.928599 -2.93202 -2.935252 -2.938303 -2.941185 -2.943909 -2.946489 -2.948936 -2.951265 -2.953487 -2.955616 -2.957663 -2.959639 -2.961555 -2.96342 -2.965243 -2.967032 -2.968793 -2.970534 -2.972258 -2.973972 -2.975678 -2.977381 -2.979085 -2.980792 -2.982507 -2.984231 -2.985969 -2.987725 -2.989501 -2.991303 -2.993136 -2.995004
3.673379 3.808853 3.869261 3.859 3.853309 3.899071 3.892302 3.773427 3.596458 3.462586 3.413657 3.424953 3.452208 3.48068 3.490181 3.500071 3.520914 3.561303 3.578557 3.564473 3.546153 3.519842 3.439464 3.312276 3.192103 3.123436 3.075258 3.041442 3.009019 2.980942 2.922715 2.818566 2.702792 2.648945 2.724162 2.918115 3.17171 3.49568 3.963993 4.264758 4.004676 3.446365 3.262746 3.591919 4.033212 4.072541 3.695791 3.181839 2.869045 2.974422 3.405583 3.954598 4.451618 4.828314 5.083417 5.189975 5.196711 5.358738 5.793448 6.451048 6.997003 7.248888 7.525768 7.907179 8.089025 7.852009 7.694219 7.758579 7.72526 7.591713 7.911299 8.607671 9.115187 9.521747 9.668586 9.544476 9.481571 9.526589 9.076274 8.277574 7.830708 7.672208 7.505951 7.402812 7.625779 8.049092 8.457784 8.645111 8.387197 7.553614 6.616348 6.111311 6.478605 7.349077 8.115691 8.384945 8.190704 7.957042 7.945822 7.843331 7.507668 7.21217 6.991448 6.841661 6.805693 6.873262 6.988369 7.07398 7.048797 6.823847 6.262014 5.449518 4.715175 4.400085 4.355413 4.425488 4.55899 4.584662 4.502075 4.504982 4.802114 5.349585 5.831431 5.863905 5.340341 4.716607 4.409204 4.395039 4.431354 4.542592 4.70944 4.853819 4.861239 4.686771 4.463639 4.32227 4.255411 4.215744 4.186542 4.179384 4.184059 4.142891 4.050782 3.955702 3.893691 3.952158 4.025095 4.023481 3.941642 3.800072 3.698632 3.698868 3.751731 3.729665 3.649926 3.568937 3.508394 3.469584 3.441184 3.431887 3.463185 3.53487 3.583843 3.569008 3.497024 3.385998 3.213705 3.046872 2.928567 2.83885 2.830244 2.902671 2.983127 3.0113 3.012926 3.006455 2.992007 2.992676 3.04439 3.122056 3.1651 3.158911 3.191008 3.264127 3.284447 3.20056 3.098297 2.999275 2.84167 2.608398 2.370302 2.29637 2.447831 2.586008 2.756533 3.105577 3.535331 3.587714 3.473162 3.484534 3.542525 3.221417 2.71426 2.338652 2.254906 2.463281 2.742869 2.85798 2.772714 2.687392 2.650148 2.758167 2.816605 2.721911 2.332315 1.59991 0.6202425 -0.3939208 -1.129612 -1.490582 -1.619488 -1.684771 -1.741038 -1.794454 -1.845218 -1.893394 -1.939085 -1.982413 -2.023505 -2.062491 -2.099493 -2.134627 -2.168005 -2.199728 -2.229894 -2.258595 -2.285914 -2.311932 -2.336727 -2.360369 -2.382926 -2.404465 -2.425047 -2.444731 -2.463572 -2.481625 -2.498941 -2.515567 -2.53155 -2.546933 -2.561757 -2.576061 -2.589879 -2.603247 -2.616194 -2.628748 -2.640937 -2.652784 -2.66431 -2.675534 -2.686473 -2.697142 -2.707555 -2.717721 -2.727653 -2.737357 -2.746841 -2.75611 -2.765172 -2.774028 -2.782684 -2.791141 -2.799403 -2.807472 -2.815348 -2.823032 -2.830526 -2.83783 -2.844941 -2.851861 -2.858586 -2.865116 -2.871448 -2.87758 -2.883509 -2.889233 -2.89475 -2.900057 -2.905152 -2.910036 -2.914707 -2.919168 -2.923418 -2.927462 -2.931304 -2.93495 -2.938405 -2.941679 -2.94478 -2.947717 -2.950501 -2.953144 -2.955657 -2.95805 -2.960336 -2.962525 -2.96463 -2.966659 -2.968622 -2.970529 -2.972388 -2.974206 -2.97599 -2.977747 -2.979482 -2.9812 -2.982905 -2.984603 -2.986297 -2.98799 -2.989688 -2.991392 -2.993109 -2.99484 -2.996591 -2.998366 -3.00017 -3.002009
3.571992 3.719189 3.813352 3.819772 3.805825 3.872574 3.907845 3.809576 3.613097 3.464458 3.425604 3.457818 3.498992 3.544621 3.550516 3.557254 3.560098 3.575021 3.568709 3.552314 3.560742 3.556839 3.477561 3.352934 3.242528 3.170834 3.119985 3.083742 3.063155 3.047725 3.008752 2.913194 2.780803 2.691931 2.713433 2.830352 2.994186 3.234694 3.589684 3.805343 3.600089 3.222796 3.191853 3.610018 4.092547 4.150866 3.784147 3.303313 3.053141 3.190849 3.589256 4.060464 4.463113 4.699397 4.799368 4.761542 4.632375 4.642085 4.965009 5.737044 6.513875 7.07189 7.623586 8.160456 8.343418 7.973081 7.702968 7.577258 7.169573 6.79663 6.987215 7.573061 8.121176 8.888075 9.358538 9.345662 9.495732 9.717023 9.12578 7.978851 7.284282 6.994768 6.883846 6.906811 7.159948 7.534801 7.899153 8.112186 7.917165 7.224406 6.527464 6.068131 6.411336 7.156688 7.773712 7.995717 7.901799 7.75281 7.620072 7.319016 6.801708 6.342403 6.047999 5.987031 6.198129 6.565551 6.879016 7.022608 6.964965 6.62251 5.913185 5.046174 4.418289 4.215786 4.202834 4.235016 4.301125 4.268965 4.203923 4.291628 4.664739 5.232723 5.725739 5.780913 5.262694 4.656431 4.366886 4.332238 4.294104 4.322617 4.425997 4.566561 4.606946 4.47091 4.25828 4.12207 4.103884 4.087632 4.073909 4.074829 4.051787 3.950624 3.822277 3.718689 3.671261 3.746729 3.848131 3.871785 3.798639 3.668551 3.57674 3.568828 3.589508 3.545732 3.449104 3.3768 3.356214 3.352865 3.356404 3.382756 3.442108 3.50193 3.518636 3.477885 3.395789 3.289214 3.144643 3.004131 2.902297 2.809357 2.791685 2.875792 2.988725 3.008914 2.987242 2.96853 2.959079 2.960157 2.979277 3.013092 3.062662 3.144595 3.252898 3.319922 3.271294 3.132174 3.015467 2.916055 2.73644 2.461989 2.14695 2.046008 2.324422 2.6561 2.862687 3.102948 3.491436 3.645566 3.593705 3.545471 3.518471 3.204648 2.814835 2.583759 2.549969 2.665547 2.862667 2.941737 2.825748 2.719436 2.693704 2.743515 2.733978 2.582497 2.114667 1.287503 0.2672405 -0.6508571 -1.236101 -1.494334 -1.595619 -1.658104 -1.715309 -1.769953 -1.822048 -1.871605 -1.918691 -1.963403 -2.005855 -2.046164 -2.084448 -2.120821 -2.155394 -2.188268 -2.219543 -2.24931 -2.277657 -2.304664 -2.330409 -2.354966 -2.378403 -2.400787 -2.42218 -2.442641 -2.462226 -2.480991 -2.498985 -2.516256 -2.532852 -2.548815 -2.564187 -2.579005 -2.593306 -2.607123 -2.620488 -2.633429 -2.645973 -2.658143 -2.669963 -2.681451 -2.692626 -2.703504 -2.714099 -2.724423 -2.734488 -2.744303 -2.753877 -2.763217 -2.77233 -2.781222 -2.789898 -2.798361 -2.806616 -2.814666 -2.822514 -2.830161 -2.837609 -2.84486 -2.851914 -2.858772 -2.865432 -2.871896 -2.87816 -2.884226 -2.890091 -2.895754 -2.901214 -2.906469 -2.91152 -2.916366 -2.921008 -2.925447 -2.929685 -2.933726 -2.937574 -2.941233 -2.944711 -2.948014 -2.95115 -2.954128 -2.956957 -2.959648 -2.96221 -2.964654 -2.96699 -2.969228 -2.971377 -2.973449 -2.97545 -2.977391 -2.979278 -2.98112 -2.982923 -2.984693 -2.986436 -2.988157 -2.989862 -2.991554 -2.993239 -2.994921 -2.996603 -2.99829 -2.999986 -3.001695 -3.003422 -3.005172 -3.00695 -3.00876
3.456406 3.557563 3.658039 3.693973 3.684218 3.746592 3.798895 3.742091 3.590986 3.482603 3.469932 3.509938 3.544804 3.56335 3.567127 3.575041 3.577277 3.575171 3.541344 3.510955 3.540921 3.584525 3.554411 3.449817 3.336923 3.263278 3.208051 3.158638 3.123659 3.061361 3.01562 2.955706 2.863449 2.783755 2.774183 2.832935 2.934182 3.1192 3.36175 3.480574 3.339854 3.155773 3.255164 3.697694 4.185529 4.271138 3.953047 3.5424 3.347594 3.471259 3.745932 4.017725 4.217445 4.292926 4.265266 4.134247 3.928417 3.827396 4.088905 4.812774 5.693824 6.438621 7.139462 7.751057 8.013163 7.806076 7.714809 7.633813 7.126779 6.751283 6.796693 7.106137 7.585252 8.591808 9.226627 9.349989 9.666503 9.864251 9.029526 7.606989 6.785193 6.34421 6.257372 6.350228 6.5632 6.876629 7.167129 7.33455 7.078105 6.479487 6.010405 5.931818 6.364674 6.919111 7.259393 7.326103 7.270847 7.181116 7.022437 6.682082 6.218871 5.845741 5.647455 5.726132 6.147663 6.740039 7.161925 7.243545 7.001079 6.429722 5.543608 4.639567 4.126297 4.077824 4.195374 4.295203 4.338178 4.238376 4.097092 4.110284 4.393763 4.836335 5.252032 5.364599 4.967899 4.459795 4.22715 4.225005 4.210211 4.245309 4.273052 4.347186 4.362389 4.257711 4.085242 3.976624 3.990079 3.996974 3.991491 3.974844 3.902411 3.741203 3.584631 3.498583 3.498544 3.595313 3.698192 3.713479 3.65287 3.558462 3.508814 3.51847 3.522239 3.44512 3.327204 3.249216 3.238246 3.247133 3.281162 3.350158 3.426367 3.435045 3.389883 3.322217 3.242761 3.150369 3.048497 2.959691 2.891257 2.817825 2.810233 2.906627 3.042124 3.038688 2.979058 2.930658 2.93124 2.964175 2.977797 2.979424 3.041807 3.193875 3.354096 3.42476 3.361426 3.205866 3.07234 2.943688 2.716508 2.398606 2.066663 2.021582 2.464256 3.010776 3.292928 3.459575 3.805704 4.055677 4.006755 3.78409 3.573266 3.237544 2.93672 2.782197 2.72798 2.729815 2.838153 2.926086 2.857308 2.784757 2.78032 2.794842 2.705502 2.454598 1.876321 0.9711502 -0.04113972 -0.8467048 -1.303357 -1.487895 -1.571817 -1.633576 -1.692006 -1.747952 -1.801355 -1.852214 -1.900585 -1.946556 -1.990234 -2.031735 -2.071172 -2.108661 -2.14431 -2.178224 -2.210502 -2.241236 -2.270514 -2.29842 -2.325032 -2.350423 -2.374663 -2.39782 -2.419954 -2.441127 -2.461395 -2.480811 -2.499428 -2.517293 -2.534452 -2.550949 -2.566824 -2.582117 -2.596863 -2.611095 -2.624846 -2.638144 -2.651017 -2.663488 -2.675581 -2.687316 -2.698712 -2.709785 -2.720551 -2.731025 -2.741216 -2.751138 -2.760799 -2.770208 -2.779373 -2.788302 -2.796999 -2.805471 -2.813724 -2.821759 -2.829583 -2.837198 -2.844607 -2.851811 -2.858814 -2.865615 -2.872217 -2.878619 -2.884823 -2.890826 -2.896631 -2.902236 -2.907642 -2.912848 -2.917854 -2.922661 -2.927271 -2.931685 -2.935905 -2.939936 -2.943782 -2.947446 -2.950935 -2.954256 -2.957416 -2.960422 -2.963284 -2.96601 -2.968609 -2.971091 -2.973464 -2.975739 -2.977924 -2.980028 -2.982059 -2.984027 -2.985937 -2.987797 -2.989614 -2.991394 -2.993143 -2.994867 -2.99657 -2.998257 -2.999933 -3.001603 -3.003272 -3.004942 -3.00662 -3.008309 -3.010014 -3.01174 -3.013492 -3.015275
3.429947 3.459861 3.53522 3.583307 3.566472 3.5894 3.624095 3.616877 3.55828 3.517075 3.525508 3.54863 3.560643 3.550011 3.538253 3.54097 3.54562 3.532669 3.482423 3.439558 3.475969 3.560409 3.583368 3.51223 3.414003 3.366284 3.328909 3.265192 3.180946 3.083975 3.029613 3.007035 2.970478 2.916734 2.888187 2.904866 2.960003 3.098096 3.262626 3.323034 3.230079 3.170581 3.326138 3.718719 4.130136 4.190288 3.915843 3.589058 3.469825 3.554857 3.667506 3.71595 3.723941 3.705295 3.644991 3.50931 3.302166 3.149345 3.303719 3.85796 4.625646 5.377079 6.107109 6.720488 7.097081 7.232275 7.50773 7.724107 7.513701 7.377358 7.354123 7.392159 7.685151 8.485351 8.982719 9.139652 9.49052 9.495799 8.500635 7.147133 6.594746 6.023049 5.933984 6.015849 6.097216 6.269479 6.53173 6.621191 6.247312 5.763071 5.612298 5.865208 6.298646 6.581831 6.638773 6.566493 6.525449 6.483772 6.358906 6.051259 5.732197 5.532822 5.459951 5.617199 6.114776 6.778882 7.22119 7.230199 6.835162 6.127557 5.206691 4.377045 3.979632 4.038628 4.26115 4.435216 4.442477 4.278405 4.048483 3.928502 4.02815 4.266741 4.551512 4.762377 4.566705 4.205904 4.032131 4.050681 4.060364 4.083411 4.096687 4.109176 4.086483 4.023232 3.941735 3.907243 3.936476 3.945926 3.939368 3.904734 3.792207 3.593649 3.436196 3.38025 3.418432 3.509509 3.571315 3.542575 3.528322 3.49019 3.488728 3.516794 3.510204 3.43498 3.325947 3.230369 3.169398 3.147091 3.187941 3.279142 3.365271 3.339149 3.269724 3.217371 3.167391 3.08913 3.005789 2.943182 2.896733 2.838476 2.821193 2.885273 2.990278 3.014283 2.967073 2.916928 2.931888 2.997418 3.025408 3.025488 3.084843 3.210265 3.355222 3.497756 3.599936 3.545277 3.371205 3.11816 2.792768 2.438958 2.140783 2.166292 2.699169 3.398966 3.760738 3.852728 4.086529 4.414603 4.456578 4.181327 3.825238 3.392574 3.033583 2.80906 2.657466 2.561972 2.607212 2.725113 2.778503 2.810197 2.851291 2.836394 2.652301 2.300717 1.6765 0.8100471 -0.1324154 -0.8835504 -1.304175 -1.468626 -1.548512 -1.611195 -1.671118 -1.728451 -1.783152 -1.835245 -1.884797 -1.931906 -1.976683 -2.019244 -2.059707 -2.098187 -2.134794 -2.169634 -2.202806 -2.234406 -2.26452 -2.293234 -2.320626 -2.346769 -2.371735 -2.39559 -2.418397 -2.440217 -2.461104 -2.481115 -2.500298 -2.518704 -2.536377 -2.553361 -2.569697 -2.585424 -2.600577 -2.61519 -2.629295 -2.642921 -2.656096 -2.668844 -2.681189 -2.693152 -2.704752 -2.716007 -2.726933 -2.737545 -2.747856 -2.757878 -2.767622 -2.777097 -2.786313 -2.795278 -2.803998 -2.812481 -2.820732 -2.828757 -2.836561 -2.844147 -2.851521 -2.858684 -2.865639 -2.87239 -2.878937 -2.885283 -2.891429 -2.897375 -2.903123 -2.908673 -2.914026 -2.919183 -2.924144 -2.928912 -2.933488 -2.937873 -2.942072 -2.946088 -2.949924 -2.953585 -2.957077 -2.960407 -2.96358 -2.966604 -2.969487 -2.972237 -2.974862 -2.977371 -2.979772 -2.982074 -2.984286 -2.986414 -2.988468 -2.990455 -2.992382 -2.994256 -2.996083 -2.99787 -2.999623 -3.001347 -3.003048 -3.00473 -3.006397 -3.008057 -3.009711 -3.011366 -3.013026 -3.014696 -3.01638 -3.018083 -3.01981 -3.021567
3.48675 3.48024 3.524676 3.551303 3.498606 3.473702 3.478481 3.513899 3.549245 3.571677 3.576892 3.565061 3.546987 3.520229 3.504334 3.504828 3.508919 3.485438 3.43745 3.389185 3.399292 3.47132 3.514792 3.487341 3.440401 3.451545 3.456521 3.399226 3.29261 3.182005 3.124168 3.115525 3.105343 3.064657 3.02444 3.026148 3.051188 3.132248 3.243901 3.28388 3.209684 3.204313 3.352873 3.643036 3.906858 3.889666 3.644512 3.407327 3.356044 3.412159 3.412461 3.312871 3.199326 3.153026 3.122526 3.044743 2.914744 2.812441 2.877555 3.174026 3.659337 4.290523 4.948886 5.448388 5.893196 6.338628 6.921715 7.464235 7.757905 8.004688 8.085539 8.049879 8.184875 8.466585 8.503695 8.484301 8.713408 8.486376 7.469636 6.297903 5.786053 5.567388 5.64501 5.763476 5.793252 5.940149 6.203519 6.234114 5.8052 5.464501 5.553665 5.921824 6.193426 6.201777 6.057674 5.912701 5.856202 5.816742 5.693859 5.465473 5.261624 5.157177 5.124889 5.254632 5.662374 6.208336 6.566267 6.540837 6.158226 5.592484 4.889577 4.273232 3.985478 4.059035 4.286688 4.493334 4.430833 4.247933 4.017404 3.842542 3.798506 3.878622 4.094707 4.315979 4.269819 4.029023 3.879539 3.871412 3.866904 3.874069 3.871686 3.84585 3.799778 3.778792 3.799116 3.863119 3.903696 3.897523 3.88254 3.840132 3.711929 3.517545 3.40824 3.392696 3.438967 3.489717 3.498781 3.464338 3.444775 3.425801 3.43906 3.468462 3.467173 3.439765 3.391808 3.303204 3.168366 3.083457 3.094727 3.166263 3.265903 3.260119 3.23013 3.224692 3.202541 3.121751 3.023991 2.945454 2.890601 2.833327 2.792134 2.804885 2.874499 2.932334 2.943028 2.935989 2.962931 3.013574 3.038738 3.053173 3.084243 3.07232 3.125163 3.379195 3.767949 3.913979 3.71279 3.304215 2.88583 2.528723 2.280198 2.31385 2.794295 3.552853 4.0076 4.05626 4.124678 4.490252 4.724215 4.580874 4.173184 3.601545 3.095055 2.746943 2.499607 2.332776 2.315078 2.437615 2.604264 2.739368 2.811398 2.748644 2.478517 2.040946 1.485718 0.7956592 -0.03134978 -0.792949 -1.258406 -1.44172 -1.526556 -1.591185 -1.652781 -1.711542 -1.767506 -1.820751 -1.871376 -1.919498 -1.965242 -2.008731 -2.050089 -2.089434 -2.126878 -2.162529 -2.196488 -2.228849 -2.259702 -2.289132 -2.317216 -2.34403 -2.369644 -2.394124 -2.417534 -2.439934 -2.461379 -2.481924 -2.501619 -2.520513 -2.538651 -2.556076 -2.572829 -2.588949 -2.604472 -2.619431 -2.633858 -2.647783 -2.661233 -2.674234 -2.686809 -2.698981 -2.710768 -2.72219 -2.733264 -2.744004 -2.754426 -2.764541 -2.774362 -2.783899 -2.793163 -2.802161 -2.810904 -2.819397 -2.827649 -2.835665 -2.843451 -2.851012 -2.858353 -2.865478 -2.87239 -2.879093 -2.885591 -2.891884 -2.897975 -2.903867 -2.909561 -2.915058 -2.92036 -2.925469 -2.930386 -2.935113 -2.939652 -2.944007 -2.94818 -2.952175 -2.955996 -2.959648 -2.963136 -2.966466 -2.969644 -2.972677 -2.975572 -2.978337 -2.980978 -2.983505 -2.985925 -2.988246 -2.990476 -2.992622 -2.994691 -2.996692 -2.998631 -3.000514 -3.002348 -3.00414 -3.005894 -3.007617 -3.009313 -3.010989 -3.012648 -3.014296 -3.015938 -3.017578 -3.019221 -3.020871 -3.022534 -3.024215 -3.025917 -3.027647
3.48928 3.499762 3.543417 3.55488 3.495144 3.431679 3.414299 3.455668 3.520755 3.570785 3.579115 3.549564 3.509666 3.476948 3.472206 3.481869 3.478963 3.468758 3.448519 3.412209 3.3816 3.395466 3.422839 3.432154 3.441166 3.501637 3.540169 3.497941 3.393825 3.284876 3.21601 3.192095 3.179883 3.143938 3.134914 3.16363 3.180729 3.198105 3.25291 3.273337 3.19196 3.220721 3.326929 3.486196 3.59005 3.511603 3.325994 3.185221 3.178113 3.235405 3.230529 3.120333 2.978468 2.91719 2.876571 2.818077 2.7552 2.722746 2.730314 2.843167 3.145848 3.720643 4.289559 4.648568 4.979061 5.569687 6.244384 6.874548 7.507845 8.11438 8.500953 8.628487 8.726702 8.570112 8.197989 7.968245 7.982424 7.535288 6.540009 5.565376 5.149708 5.078829 5.207751 5.35919 5.48922 5.809696 6.203828 6.282047 5.898791 5.64188 5.749434 5.981831 6.011451 5.848541 5.65805 5.508257 5.428164 5.353443 5.204678 5.008268 4.867457 4.789646 4.750749 4.805615 5.019695 5.300961 5.45257 5.369274 5.094041 4.911501 4.577484 4.21508 4.014989 4.020222 4.117932 4.198743 4.164972 4.071162 3.946459 3.822221 3.738674 3.741497 3.896307 4.094218 4.108134 3.926741 3.777049 3.73829 3.727048 3.728739 3.721407 3.678976 3.61607 3.617751 3.682195 3.803835 3.837802 3.810059 3.785882 3.737457 3.603641 3.449091 3.395348 3.442653 3.509957 3.515775 3.465994 3.40613 3.367668 3.320076 3.291704 3.293992 3.309684 3.336546 3.364136 3.338234 3.20175 3.088876 3.072149 3.127644 3.198501 3.220327 3.237115 3.256641 3.229251 3.132775 3.021461 2.915647 2.832276 2.777069 2.739933 2.734143 2.781029 2.86131 2.927727 2.965235 2.98491 2.980784 2.967999 2.976407 2.969233 2.815711 2.770121 3.077111 3.635344 3.947646 3.797189 3.369914 2.975001 2.652957 2.415097 2.372572 2.707947 3.456595 4.018513 4.120973 4.115648 4.490294 4.836076 4.779545 4.336517 3.691034 3.132414 2.76525 2.510629 2.319554 2.246532 2.3271 2.498349 2.60868 2.615011 2.458854 2.112337 1.683136 1.273154 0.7804691 0.06347692 -0.7074066 -1.214265 -1.416704 -1.507111 -1.573947 -1.637245 -1.697392 -1.754533 -1.808815 -1.860381 -1.909379 -1.95595 -2.00023 -2.042349 -2.08243 -2.120589 -2.156935 -2.191569 -2.224589 -2.256082 -2.286134 -2.314824 -2.342225 -2.368409 -2.393441 -2.417384 -2.440298 -2.462238 -2.483259 -2.50341 -2.52274 -2.541293 -2.559113 -2.576241 -2.592714 -2.608569 -2.623839 -2.638556 -2.65275 -2.666449 -2.679678 -2.692462 -2.704823 -2.71678 -2.728354 -2.739561 -2.750418 -2.76094 -2.77114 -2.781032 -2.790625 -2.799932 -2.808963 -2.817725 -2.826229 -2.83448 -2.842488 -2.850257 -2.857794 -2.865105 -2.872194 -2.879066 -2.885725 -2.892175 -2.898418 -2.904459 -2.910298 -2.91594 -2.921386 -2.926638 -2.931699 -2.936571 -2.941257 -2.945759 -2.95008 -2.954224 -2.958195 -2.961996 -2.965633 -2.96911 -2.972434 -2.97561 -2.978644 -2.981543 -2.984314 -2.986965 -2.989502 -2.991933 -2.994265 -2.996506 -2.998663 -3.000742 -3.002752 -3.004698 -3.006586 -3.008424 -3.010216 -3.01197 -3.01369 -3.015381 -3.017049 -3.018699 -3.020335 -3.021964 -3.023588 -3.025214 -3.026846 -3.028488 -3.030146 -3.031824 -3.033528
3.373585 3.411044 3.477207 3.497611 3.454072 3.410173 3.401604 3.427608 3.470652 3.522099 3.535642 3.488303 3.415642 3.382251 3.413739 3.461927 3.470802 3.472759 3.484908 3.478493 3.430427 3.389197 3.390145 3.418622 3.451761 3.522501 3.568456 3.537026 3.43584 3.310706 3.212394 3.174292 3.184691 3.188483 3.216223 3.264349 3.28019 3.259459 3.275376 3.30175 3.274164 3.279122 3.302209 3.325552 3.319013 3.247107 3.168967 3.129852 3.147425 3.204929 3.224242 3.163135 3.062784 3.017702 2.941688 2.86123 2.816975 2.813641 2.736157 2.739727 3.007422 3.62807 4.140797 4.371994 4.691439 5.451117 6.232537 6.912858 7.696319 8.412533 8.987833 9.127934 9.049921 8.612588 8.123734 7.892283 7.782557 7.20876 6.204729 5.309575 4.92268 4.861184 4.971767 5.167984 5.472812 6.001922 6.529692 6.676961 6.341217 6.011178 5.920102 5.890293 5.75308 5.598979 5.523373 5.396965 5.287522 5.15344 4.94841 4.749268 4.655928 4.603067 4.567085 4.56774 4.617943 4.640762 4.597014 4.494634 4.427028 4.448163 4.331906 4.104093 3.942121 3.892814 3.884665 3.867062 3.839471 3.831172 3.813704 3.769489 3.723214 3.727672 3.841082 3.984855 3.995997 3.843019 3.694796 3.65232 3.67986 3.700941 3.698813 3.65232 3.58471 3.596449 3.665363 3.735385 3.730211 3.684883 3.658333 3.610426 3.480387 3.35855 3.364949 3.484468 3.587545 3.56409 3.465382 3.370346 3.300679 3.225933 3.166735 3.148805 3.170088 3.203342 3.240788 3.267308 3.180135 3.102303 3.087514 3.116188 3.153093 3.186472 3.220292 3.234982 3.194866 3.092706 2.976068 2.86148 2.761549 2.721847 2.723293 2.741431 2.777274 2.842769 2.911085 2.952818 2.95519 2.924609 2.902272 2.910854 2.886842 2.672309 2.552103 2.790674 3.299992 3.632533 3.575846 3.295718 3.053199 2.807143 2.558668 2.413249 2.583406 3.236529 3.820464 3.956976 3.870639 4.107671 4.390674 4.367687 3.99551 3.458615 3.014889 2.743051 2.551681 2.374318 2.26999 2.32041 2.48439 2.509733 2.406665 2.173799 1.839321 1.504422 1.200231 0.7650453 0.05650496 -0.7059935 -1.201887 -1.399562 -1.491107 -1.559971 -1.624831 -1.686213 -1.744375 -1.799534 -1.851883 -1.9016 -1.948846 -1.99377 -2.03651 -2.077196 -2.115945 -2.152868 -2.188067 -2.22164 -2.253675 -2.284256 -2.313463 -2.34137 -2.368045 -2.393555 -2.417962 -2.441324 -2.463698 -2.485136 -2.505688 -2.525401 -2.544322 -2.562491 -2.57995 -2.596736 -2.612886 -2.628433 -2.643408 -2.657842 -2.671763 -2.685196 -2.698165 -2.710695 -2.722804 -2.734513 -2.74584 -2.756801 -2.767413 -2.777689 -2.787643 -2.797287 -2.806633 -2.815691 -2.824471 -2.832982 -2.841233 -2.849231 -2.856983 -2.864497 -2.871779 -2.878834 -2.885668 -2.892284 -2.898689 -2.904884 -2.910875 -2.916664 -2.922256 -2.927651 -2.932855 -2.937869 -2.942696 -2.947339 -2.951802 -2.956088 -2.9602 -2.964143 -2.96792 -2.971537 -2.974999 -2.978311 -2.981477 -2.984506 -2.987403 -2.990174 -2.992827 -2.995367 -2.997803 -3.00014 -3.002386 -3.004548 -3.006633 -3.008646 -3.010594 -3.012484 -3.014322 -3.016113 -3.017863 -3.019578 -3.021262 -3.022922 -3.024562 -3.026186 -3.027801 -3.02941 -3.031018 -3.032631 -3.034252 -3.035887 -3.03754 -3.039217
3.191775 3.263642 3.360353 3.401256 3.375947 3.358784 3.373188 3.403691 3.439682 3.501316 3.528791 3.464425 3.347292 3.293599 3.345455 3.428675 3.455378 3.462413 3.49225 3.514525 3.479204 3.426489 3.421273 3.453961 3.471098 3.512805 3.552085 3.537218 3.442235 3.29892 3.180357 3.150806 3.204282 3.257035 3.299477 3.335912 3.348084 3.316293 3.313204 3.346572 3.363364 3.35988 3.316194 3.252131 3.213278 3.17234 3.182602 3.212599 3.240332 3.278337 3.29688 3.282843 3.254916 3.260564 3.139318 3.03657 3.000455 3.018033 2.812119 2.754611 3.076142 3.791259 4.34312 4.620484 5.154922 6.152937 7.109903 7.901037 8.74518 9.417167 9.699465 9.512884 9.087061 8.479149 8.052896 7.940908 7.811895 7.301393 6.388424 5.585044 5.220384 5.138368 5.236955 5.509307 5.977467 6.557754 6.994872 7.040542 6.662813 6.161994 5.857589 5.636316 5.479841 5.462883 5.598195 5.442195 5.291879 5.117668 4.878835 4.670613 4.586182 4.540263 4.502004 4.477635 4.475652 4.331804 4.201998 4.106055 4.100282 4.167179 4.117069 3.944786 3.80353 3.748614 3.707564 3.642061 3.600712 3.625252 3.66208 3.676612 3.688195 3.728969 3.820854 3.905571 3.88918 3.760251 3.633439 3.612898 3.697505 3.731218 3.732158 3.688675 3.620242 3.60518 3.616233 3.616666 3.589796 3.550926 3.530739 3.488386 3.380741 3.301463 3.354726 3.50682 3.613869 3.574401 3.451898 3.329565 3.231125 3.167387 3.146222 3.159568 3.174641 3.15343 3.138653 3.132176 3.080683 3.064736 3.087511 3.113528 3.126355 3.148264 3.170156 3.17897 3.15712 3.071091 2.942285 2.800979 2.691581 2.682036 2.73826 2.798829 2.84046 2.891396 2.931265 2.934231 2.904722 2.881137 2.889266 2.912254 2.91278 2.749202 2.597871 2.686694 3.017533 3.272334 3.296075 3.189365 3.094398 2.922898 2.683012 2.482778 2.525373 3.002486 3.495252 3.618486 3.443232 3.439142 3.565376 3.606125 3.437242 3.106057 2.813769 2.643425 2.519236 2.363468 2.247926 2.299428 2.509015 2.470881 2.308089 2.053177 1.794889 1.573555 1.302501 0.7913588 -0.01131368 -0.7684227 -1.217981 -1.390849 -1.479304 -1.549756 -1.615868 -1.678224 -1.737176 -1.793004 -1.845945 -1.896203 -1.943959 -1.989373 -2.032591 -2.073745 -2.112957 -2.150337 -2.18599 -2.220011 -2.252489 -2.283508 -2.313145 -2.341473 -2.368562 -2.394477 -2.419278 -2.443024 -2.46577 -2.487567 -2.508465 -2.528512 -2.547751 -2.566224 -2.583972 -2.601032 -2.61744 -2.633228 -2.64843 -2.663075 -2.67719 -2.690802 -2.703935 -2.716612 -2.728855 -2.740683 -2.752115 -2.763168 -2.773858 -2.7842 -2.794208 -2.803896 -2.813274 -2.822354 -2.831148 -2.839664 -2.847911 -2.855898 -2.863634 -2.871125 -2.878377 -2.885399 -2.892195 -2.89877 -2.90513 -2.911279 -2.917222 -2.922962 -2.928504 -2.933851 -2.939005 -2.943972 -2.948754 -2.953355 -2.957777 -2.962025 -2.966104 -2.970016 -2.973766 -2.977359 -2.980801 -2.984095 -2.987248 -2.990266 -2.993155 -2.99592 -2.998569 -3.001107 -3.003541 -3.005878 -3.008124 -3.010286 -3.012371 -3.014384 -3.016331 -3.018219 -3.020054 -3.021841 -3.023585 -3.025293 -3.026969 -3.028619 -3.030247 -3.031858 -3.033458 -3.035051 -3.036641 -3.038234 -3.039834 -3.041446 -3.043074 -3.044724
3.126445 3.192083 3.291309 3.336496 3.309432 3.290596 3.318628 3.378567 3.445451 3.53979 3.601585 3.550141 3.396138 3.292289 3.309368 3.385749 3.421731 3.424221 3.448295 3.481114 3.474423 3.456961 3.468768 3.496037 3.47351 3.472086 3.513791 3.537947 3.469661 3.342696 3.237036 3.225816 3.298466 3.372398 3.409945 3.420385 3.422194 3.393844 3.384339 3.413827 3.446943 3.43348 3.363331 3.278598 3.23334 3.227564 3.264864 3.311443 3.335687 3.336236 3.333352 3.339393 3.343412 3.322216 3.225061 3.140343 3.092872 3.028066 2.861381 2.872956 3.307742 4.094058 4.751879 5.239404 6.188548 7.4003 8.43714 9.217423 9.882889 10.16271 9.956594 9.402017 8.764273 8.179949 7.889793 7.89654 7.869892 7.449809 6.753285 6.151915 5.853755 5.767982 5.891239 6.261936 6.834537 7.24826 7.307385 7.031429 6.558403 6.016894 5.599066 5.338002 5.241297 5.292734 5.408516 5.363016 5.245465 5.097712 4.892267 4.699559 4.557491 4.46553 4.380158 4.293304 4.220356 4.12952 4.091566 4.065586 4.009225 3.968426 3.902916 3.800115 3.710346 3.684729 3.652768 3.564668 3.500267 3.517977 3.567746 3.611413 3.657778 3.719559 3.795661 3.835934 3.794813 3.695463 3.609387 3.606523 3.685728 3.733324 3.742015 3.705944 3.629706 3.559831 3.502774 3.463673 3.44712 3.433438 3.423637 3.388846 3.316231 3.292277 3.369608 3.49306 3.552929 3.510248 3.401722 3.279041 3.1588 3.128891 3.191271 3.273589 3.276438 3.16517 3.050921 2.984392 2.942012 2.969578 3.039689 3.097327 3.116729 3.124465 3.124264 3.136586 3.159063 3.103211 2.946223 2.750416 2.625072 2.646835 2.741985 2.828039 2.892342 2.97 3.005795 2.967785 2.899609 2.88135 2.922889 2.945193 2.992089 2.954516 2.838741 2.80446 2.960584 3.126026 3.17867 3.147942 3.095625 2.951544 2.730012 2.538081 2.541624 2.857335 3.215415 3.297638 3.058207 2.836781 2.841902 3.002911 3.071429 2.889407 2.675516 2.574192 2.511655 2.369368 2.22673 2.228994 2.384262 2.429564 2.339206 2.109158 1.910685 1.75611 1.485261 0.8805308 -0.04316306 -0.8215925 -1.238126 -1.387491 -1.472277 -1.543725 -1.610638 -1.673612 -1.733058 -1.789304 -1.842617 -1.893221 -1.941309 -1.987052 -2.030597 -2.072082 -2.111628 -2.149347 -2.185341 -2.219705 -2.252528 -2.283891 -2.313871 -2.342541 -2.369967 -2.396213 -2.42134 -2.445405 -2.468462 -2.490561 -2.511752 -2.532081 -2.55159 -2.570323 -2.588318 -2.605612 -2.622241 -2.638238 -2.653635 -2.66846 -2.682743 -2.696509 -2.709783 -2.722588 -2.734946 -2.746876 -2.758398 -2.769528 -2.780285 -2.790683 -2.800736 -2.810459 -2.819863 -2.82896 -2.837762 -2.846279 -2.85452 -2.862495 -2.870211 -2.877678 -2.884901 -2.891889 -2.898647 -2.905181 -2.911498 -2.917601 -2.923497 -2.929189 -2.934682 -2.93998 -2.945086 -2.950006 -2.954742 -2.959299 -2.96368 -2.96789 -2.971931 -2.97581 -2.97953 -2.983097 -2.986514 -2.989787 -2.992922 -2.995925 -2.9988 -3.001554 -3.004194 -3.006725 -3.009153 -3.011484 -3.013726 -3.015884 -3.017964 -3.019973 -3.021916 -3.023799 -3.025628 -3.027408 -3.029145 -3.030843 -3.032509 -3.034147 -3.035763 -3.03736 -3.038944 -3.04052 -3.042091 -3.043664 -3.045242 -3.04683 -3.048432 -3.050054
3.130567 3.186495 3.27316 3.314794 3.29577 3.284682 3.315449 3.379213 3.446675 3.558275 3.65639 3.644946 3.503459 3.364911 3.320684 3.355842 3.391269 3.386625 3.395748 3.429227 3.450887 3.463794 3.499097 3.518372 3.463906 3.429647 3.486639 3.567859 3.555614 3.467585 3.384209 3.362172 3.400922 3.468826 3.520334 3.529672 3.520083 3.492819 3.471561 3.468987 3.474916 3.44733 3.398184 3.361013 3.350947 3.350449 3.376646 3.415415 3.425807 3.394887 3.367337 3.367754 3.368956 3.320525 3.230237 3.172209 3.117738 3.038397 2.987615 3.197858 3.80678 4.614589 5.370854 6.18755 7.371912 8.601315 9.468832 9.926893 10.08586 9.755266 9.077998 8.411283 7.991229 7.810124 7.842575 7.966867 7.941691 7.596928 7.082749 6.616414 6.32215 6.239806 6.439286 6.90136 7.504899 7.629512 7.238078 6.626969 6.082457 5.613246 5.286093 5.12005 5.096942 5.181133 5.271852 5.253241 5.155665 5.041377 4.88942 4.752045 4.523856 4.381278 4.251974 4.122409 4.042518 4.026146 4.112978 4.157054 4.005197 3.815564 3.71783 3.702277 3.69665 3.714224 3.696517 3.581347 3.509247 3.524729 3.576916 3.626672 3.675259 3.727274 3.771932 3.77794 3.731026 3.66953 3.632873 3.643449 3.691572 3.732347 3.747053 3.710091 3.611596 3.490242 3.396516 3.349854 3.342481 3.335871 3.331515 3.311503 3.268142 3.275776 3.341572 3.409167 3.420443 3.401566 3.343648 3.237722 3.118171 3.104214 3.20441 3.311968 3.298787 3.151413 2.992579 2.887827 2.83709 2.881657 2.978079 3.064802 3.11112 3.123281 3.102501 3.096394 3.132813 3.113962 2.964252 2.745764 2.608965 2.641537 2.730545 2.801093 2.881105 2.996049 3.059688 3.030097 2.959726 2.927671 2.929447 2.943806 3.012322 3.087036 3.078039 3.029538 3.049971 3.108646 3.131662 3.113465 3.065713 2.910022 2.661762 2.486766 2.566719 2.870428 3.142937 3.131395 2.795557 2.420475 2.355907 2.593615 2.795011 2.701114 2.592844 2.645764 2.720534 2.613523 2.417252 2.316448 2.373509 2.440996 2.454909 2.236737 2.050422 1.910414 1.646315 1.007455 0.004868865 -0.8181223 -1.241702 -1.386466 -1.470379 -1.54216 -1.609331 -1.672498 -1.732099 -1.788481 -1.841925 -1.892665 -1.9409 -1.986803 -2.030524 -2.0722 -2.111951 -2.149888 -2.186112 -2.220716 -2.253786 -2.285403 -2.315641 -2.34457 -2.372257 -2.398765 -2.424151 -2.448471 -2.471779 -2.494124 -2.515554 -2.536115 -2.555849 -2.574796 -2.592997 -2.610487 -2.627301 -2.643473 -2.659033 -2.674011 -2.688435 -2.70233 -2.715723 -2.728634 -2.741088 -2.753103 -2.764699 -2.775894 -2.786705 -2.797147 -2.807236 -2.816985 -2.826408 -2.835516 -2.844321 -2.852834 -2.861065 -2.869024 -2.876719 -2.88416 -2.891352 -2.898305 -2.905025 -2.911518 -2.917791 -2.923849 -2.929698 -2.935341 -2.940786 -2.946035 -2.951094 -2.955966 -2.960656 -2.965168 -2.969507 -2.973676 -2.97768 -2.981523 -2.985211 -2.988747 -2.992137 -2.995386 -2.998499 -3.001482 -3.00434 -3.007079 -3.009705 -3.012224 -3.014642 -3.016964 -3.019197 -3.021347 -3.02342 -3.025421 -3.027356 -3.029231 -3.031051 -3.032821 -3.034548 -3.036236 -3.03789 -3.039515 -3.041116 -3.042698 -3.044266 -3.045823 -3.047375 -3.048926 -3.050481 -3.052044 -3.05362 -3.055213
3.137266 3.206227 3.274928 3.30084 3.296935 3.312263 3.352293 3.410861 3.438669 3.526973 3.620307 3.634011 3.542571 3.425996 3.354682 3.35208 3.385487 3.3945 3.416017 3.460784 3.501071 3.523743 3.561385 3.575671 3.510547 3.451848 3.505225 3.606633 3.619233 3.568793 3.505338 3.455373 3.435675 3.478559 3.561194 3.594529 3.578542 3.530344 3.476811 3.435135 3.425344 3.415104 3.411548 3.433762 3.473781 3.49365 3.515172 3.537745 3.528368 3.476676 3.420806 3.387423 3.366113 3.317941 3.253752 3.237658 3.14107 3.08269 3.20838 3.691704 4.502236 5.307064 6.047677 6.925805 8.065766 9.082837 9.616746 9.588056 9.111225 8.28746 7.445846 7.066303 7.186063 7.560039 7.978124 8.276083 8.267233 7.929941 7.388884 6.819073 6.421073 6.355381 6.697136 7.297615 7.763195 7.514242 6.769603 6.013078 5.522267 5.21244 5.052242 5.00328 5.021201 5.09673 5.160767 5.152245 5.079081 4.966209 4.787244 4.587701 4.391182 4.263278 4.147831 4.038522 3.983384 3.993451 4.107715 4.150264 3.939068 3.707151 3.618472 3.657779 3.69693 3.715332 3.677468 3.597827 3.572191 3.594593 3.632632 3.669286 3.702566 3.724055 3.736062 3.731813 3.708025 3.686357 3.680312 3.681603 3.680834 3.695956 3.71899 3.693413 3.584645 3.438582 3.353018 3.327226 3.322427 3.281749 3.256433 3.252504 3.230375 3.238179 3.256998 3.260738 3.237998 3.25505 3.270055 3.222649 3.134364 3.140178 3.23771 3.312439 3.263815 3.131573 2.988872 2.871758 2.813373 2.888481 3.00164 3.06404 3.073365 3.073586 3.04473 3.011804 3.019657 3.034931 2.955231 2.805039 2.706841 2.741749 2.789785 2.807451 2.860602 2.958154 3.020674 3.025844 3.018529 3.014673 2.97582 2.92147 2.939686 3.048476 3.134663 3.118441 3.032797 2.981772 2.943184 2.903012 2.851455 2.700093 2.461216 2.336871 2.510031 2.831004 3.047135 2.960844 2.555299 2.073584 1.873499 2.02528 2.277149 2.366528 2.47694 2.742488 3.013198 2.993205 2.74357 2.496638 2.40272 2.379816 2.366153 2.255867 2.118616 1.992747 1.735915 1.089504 0.05252695 -0.8004357 -1.239671 -1.389424 -1.473775 -1.545164 -1.612015 -1.674924 -1.734318 -1.790538 -1.843863 -1.894523 -1.942715 -1.988609 -2.032354 -2.074081 -2.11391 -2.151947 -2.188291 -2.223032 -2.256254 -2.288034 -2.318446 -2.347557 -2.375431 -2.402129 -2.427707 -2.452221 -2.475722 -2.498257 -2.519875 -2.540619 -2.56053 -2.57965 -2.598016 -2.615663 -2.632627 -2.64894 -2.664633 -2.679735 -2.694273 -2.708274 -2.721761 -2.73476 -2.74729 -2.759373 -2.771028 -2.782273 -2.793125 -2.803601 -2.813715 -2.823482 -2.832915 -2.842026 -2.850829 -2.859334 -2.86755 -2.875489 -2.88316 -2.890572 -2.897732 -2.904649 -2.911329 -2.91778 -2.924009 -2.930021 -2.935822 -2.941418 -2.946814 -2.952014 -2.957024 -2.961849 -2.966492 -2.970959 -2.975254 -2.979382 -2.983346 -2.987152 -2.990804 -2.994308 -2.997668 -3.00089 -3.003977 -3.006937 -3.009775 -3.012495 -3.015104 -3.017607 -3.020011 -3.02232 -3.024541 -3.02668 -3.028741 -3.030731 -3.032656 -3.03452 -3.036329 -3.038088 -3.039802 -3.041477 -3.043118 -3.044728 -3.046314 -3.047879 -3.049428 -3.050966 -3.052498 -3.054027 -3.055558 -3.057096 -3.058644 -3.060207
3.1564 3.252367 3.304893 3.303479 3.291978 3.303988 3.328605 3.35946 3.393443 3.464457 3.529716 3.545513 3.505504 3.435109 3.365309 3.343679 3.38843 3.441663 3.506595 3.568305 3.61399 3.63768 3.670162 3.676336 3.604452 3.525785 3.551284 3.616563 3.597322 3.558316 3.523994 3.484755 3.454292 3.49752 3.577053 3.615069 3.586619 3.500866 3.407553 3.355538 3.362834 3.387777 3.425659 3.494312 3.5779 3.622112 3.64073 3.649107 3.634821 3.570444 3.489177 3.422366 3.38796 3.356455 3.290506 3.211493 3.123953 3.116 3.402122 4.075262 4.959634 5.708759 6.395821 7.203934 8.126888 8.847762 9.044038 8.54543 7.515459 6.532181 5.853576 6.017961 6.723703 7.493519 8.166285 8.609575 8.651663 8.296261 7.621702 6.840341 6.329535 6.247429 6.656207 7.280602 7.556384 7.003381 6.10757 5.420237 5.075603 4.931425 4.899793 4.915763 4.938331 4.980791 5.022479 5.036653 4.999695 4.873847 4.649202 4.414604 4.23752 4.120634 4.030232 3.965579 3.945323 3.952866 4.011332 4.002182 3.802797 3.66205 3.604552 3.632159 3.662885 3.660838 3.622633 3.594133 3.617836 3.627249 3.62875 3.641672 3.663373 3.670984 3.677397 3.686428 3.693204 3.699769 3.702515 3.676719 3.617895 3.59511 3.644371 3.662725 3.570482 3.415402 3.349609 3.337332 3.340381 3.264263 3.208709 3.212238 3.210543 3.183808 3.153368 3.125051 3.102657 3.147016 3.208135 3.214914 3.177859 3.218796 3.309259 3.337126 3.248224 3.13992 3.035359 2.933214 2.888035 2.999272 3.105961 3.084425 2.980658 2.945564 2.938071 2.913311 2.881979 2.899417 2.898049 2.880336 2.875846 2.915758 2.900471 2.839353 2.83685 2.894469 2.931025 2.95454 3.020811 3.065188 3.004038 2.878113 2.821437 2.892771 2.998881 2.999841 2.866092 2.760326 2.679935 2.610557 2.545452 2.406473 2.212873 2.138499 2.320859 2.604084 2.803796 2.751573 2.395317 1.919148 1.595621 1.59184 1.852324 2.127711 2.390615 2.739896 3.136654 3.235381 2.979426 2.600085 2.35253 2.228178 2.195768 2.159796 2.074226 1.965761 1.699626 1.038195 0.003491759 -0.8294312 -1.25344 -1.399599 -1.48239 -1.552655 -1.618627 -1.680837 -1.739668 -1.795433 -1.848389 -1.898755 -1.946717 -1.992435 -2.036053 -2.077695 -2.117476 -2.155498 -2.191855 -2.226634 -2.259914 -2.291771 -2.322274 -2.351489 -2.379478 -2.406298 -2.432005 -2.456651 -2.480287 -2.502959 -2.524714 -2.545592 -2.565637 -2.584886 -2.603377 -2.621145 -2.638224 -2.654646 -2.670441 -2.685639 -2.700265 -2.714347 -2.727908 -2.740971 -2.75356 -2.765693 -2.777391 -2.788671 -2.799552 -2.810049 -2.820178 -2.829954 -2.839389 -2.848497 -2.857291 -2.865781 -2.873978 -2.881894 -2.889537 -2.896916 -2.904041 -2.91092 -2.917559 -2.923967 -2.930151 -2.936116 -2.941869 -2.947416 -2.952763 -2.957914 -2.962876 -2.967652 -2.972248 -2.976669 -2.980919 -2.985003 -2.988927 -2.992694 -2.99631 -2.999779 -3.003106 -3.006297 -3.009357 -3.012291 -3.015105 -3.017803 -3.020392 -3.022876 -3.025262 -3.027555 -3.029761 -3.031885 -3.033933 -3.035909 -3.03782 -3.03967 -3.041466 -3.043211 -3.044912 -3.046572 -3.048197 -3.049791 -3.051359 -3.052906 -3.054436 -3.055954 -3.057464 -3.05897 -3.060476 -3.061987 -3.063508 -3.065041
3.216103 3.329235 3.382606 3.364303 3.313901 3.261926 3.241077 3.270849 3.33938 3.413563 3.459346 3.472617 3.461939 3.411587 3.332382 3.297283 3.361775 3.468975 3.576306 3.654133 3.700965 3.738345 3.772898 3.763093 3.677081 3.587168 3.585965 3.595778 3.52278 3.474133 3.475478 3.4924 3.506265 3.559613 3.618888 3.636592 3.593476 3.487638 3.381622 3.335834 3.354812 3.388018 3.449209 3.562999 3.677255 3.72581 3.729685 3.729761 3.72868 3.637685 3.542333 3.48044 3.467177 3.453574 3.370428 3.226635 3.106409 3.124263 3.47947 4.131189 4.820682 5.398361 6.059623 6.897269 7.734496 8.310122 8.283129 7.410137 5.956244 4.929762 4.781238 5.552639 6.695151 7.613773 8.288465 8.71911 8.775661 8.431822 7.716634 6.828446 6.330613 6.181144 6.480281 6.933363 6.967068 6.288075 5.480238 5.008132 4.799667 4.756225 4.768457 4.778752 4.780067 4.794537 4.82725 4.868247 4.86279 4.721875 4.46545 4.248984 4.10429 3.990847 3.89663 3.846641 3.859693 3.884324 3.901916 3.884176 3.807125 3.718686 3.627795 3.578996 3.578885 3.567745 3.548465 3.554731 3.582997 3.554316 3.517429 3.510317 3.53371 3.565012 3.600309 3.625129 3.642045 3.652937 3.655476 3.610415 3.507632 3.454331 3.557849 3.637561 3.570408 3.395401 3.290294 3.294899 3.328588 3.264757 3.192683 3.168592 3.150763 3.111942 3.081722 3.071663 3.079529 3.133821 3.186743 3.197125 3.187685 3.252829 3.347013 3.361653 3.258796 3.15041 3.070127 3.009946 3.006933 3.128618 3.197111 3.092678 2.897343 2.812809 2.835941 2.856108 2.811243 2.800169 2.837381 2.912835 2.995389 3.041506 2.9761 2.856707 2.816174 2.853194 2.865448 2.875583 2.966777 3.030392 2.970503 2.829287 2.736515 2.749669 2.807338 2.797846 2.69205 2.623212 2.56041 2.479111 2.386048 2.233951 2.058275 1.973058 2.065199 2.274583 2.503782 2.57709 2.373386 2.024703 1.712096 1.644575 1.885782 2.175488 2.374828 2.626007 3.02833 3.212967 2.98533 2.535316 2.19011 2.003962 1.965046 1.973766 1.933163 1.834933 1.524266 0.8202769 -0.1799073 -0.928599 -1.29083 -1.41781 -1.495883 -1.564383 -1.628988 -1.690102 -1.748043 -1.803076 -1.855428 -1.905296 -1.952847 -1.99823 -2.041575 -2.083001 -2.122613 -2.160508 -2.196775 -2.231495 -2.264744 -2.296592 -2.327108 -2.356352 -2.384384 -2.41126 -2.437033 -2.461754 -2.485469 -2.508226 -2.530067 -2.551034 -2.571168 -2.590505 -2.609083 -2.626935 -2.644095 -2.660594 -2.676462 -2.691727 -2.706416 -2.720554 -2.734167 -2.747276 -2.759903 -2.772069 -2.783794 -2.795096 -2.805992 -2.816499 -2.826632 -2.836406 -2.845835 -2.854932 -2.863709 -2.872179 -2.880352 -2.888239 -2.89585 -2.903195 -2.910282 -2.917119 -2.923716 -2.930079 -2.936216 -2.942133 -2.947837 -2.953335 -2.958632 -2.963733 -2.968645 -2.973372 -2.97792 -2.982294 -2.986499 -2.990539 -2.99442 -2.998146 -3.001723 -3.005156 -3.008449 -3.011608 -3.014637 -3.017543 -3.02033 -3.023003 -3.025569 -3.028032 -3.030398 -3.032672 -3.034859 -3.036966 -3.038997 -3.040957 -3.042852 -3.044687 -3.046467 -3.048196 -3.04988 -3.051524 -3.053131 -3.054708 -3.056258 -3.057785 -3.059295 -3.060791 -3.062278 -3.06376 -3.06524 -3.066724 -3.068215 -3.069717
3.296637 3.414863 3.48731 3.489359 3.403908 3.261838 3.180989 3.215513 3.313566 3.388633 3.422419 3.439239 3.447787 3.399919 3.297123 3.237973 3.299939 3.4342 3.562815 3.642206 3.685507 3.734833 3.772598 3.758699 3.684234 3.608245 3.61242 3.60781 3.530207 3.472814 3.477547 3.522699 3.571991 3.635468 3.681951 3.686396 3.645582 3.559141 3.462137 3.402968 3.38597 3.384915 3.453423 3.604601 3.758016 3.81712 3.817238 3.799396 3.751247 3.637082 3.547555 3.529846 3.552477 3.528662 3.407624 3.211936 3.080154 3.145241 3.523506 4.005613 4.295603 4.624693 5.231009 6.159048 7.090425 7.701325 7.567679 6.48144 4.900693 4.078125 4.386674 5.542241 6.877159 7.792822 8.325593 8.598377 8.60737 8.333891 7.771564 7.072256 6.55656 6.281593 6.299795 6.36303 6.092569 5.474031 4.957715 4.792769 4.649997 4.642789 4.641931 4.598179 4.549062 4.547785 4.579795 4.634822 4.644899 4.499797 4.23621 4.107454 4.031346 3.947385 3.843104 3.776208 3.808937 3.863119 3.889877 3.897646 3.888129 3.785469 3.615313 3.48836 3.468365 3.468607 3.46719 3.469957 3.463699 3.411236 3.37441 3.359231 3.387337 3.454025 3.518345 3.533484 3.540838 3.532797 3.531978 3.497082 3.412368 3.40989 3.531489 3.626257 3.566122 3.400976 3.275193 3.261597 3.311701 3.29368 3.21659 3.132142 3.076838 3.068454 3.081188 3.089762 3.10486 3.156161 3.179219 3.157904 3.124673 3.167062 3.25499 3.292507 3.217402 3.090967 3.01227 2.999828 3.048007 3.148899 3.177237 3.066983 2.888641 2.791179 2.807081 2.842412 2.808757 2.778531 2.801732 2.880489 2.971309 3.015193 2.96855 2.883302 2.853684 2.848923 2.824854 2.818804 2.902057 2.952922 2.910597 2.80532 2.718611 2.702313 2.715507 2.695755 2.646606 2.659846 2.660574 2.59619 2.477702 2.298408 2.095444 1.948885 1.942173 2.099508 2.337678 2.46922 2.357618 2.110118 1.904184 1.911414 2.13212 2.287696 2.344438 2.528722 2.927999 3.093272 2.840044 2.384277 2.045934 1.847309 1.795308 1.820373 1.811824 1.697784 1.284187 0.4943011 -0.4467568 -1.063729 -1.337083 -1.441015 -1.513695 -1.57998 -1.642828 -1.702514 -1.759279 -1.813336 -1.864872 -1.914053 -1.961027 -2.005923 -2.048861 -2.089945 -2.129274 -2.166936 -2.203013 -2.237582 -2.270713 -2.302472 -2.332923 -2.362125 -2.390134 -2.417002 -2.44278 -2.467517 -2.491258 -2.514048 -2.535928 -2.556939 -2.577119 -2.596505 -2.615132 -2.633033 -2.65024 -2.666785 -2.682697 -2.698002 -2.712728 -2.7269 -2.740542 -2.753676 -2.766324 -2.778507 -2.790243 -2.801552 -2.81245 -2.822954 -2.833081 -2.842843 -2.852257 -2.861334 -2.870088 -2.878531 -2.886674 -2.894528 -2.902103 -2.909408 -2.916454 -2.923248 -2.929799 -2.936115 -2.942203 -2.948071 -2.953725 -2.959172 -2.964418 -2.969468 -2.97433 -2.979007 -2.983506 -2.987832 -2.99199 -2.995985 -2.999822 -3.003507 -3.007044 -3.010438 -3.013695 -3.016819 -3.019816 -3.022691 -3.025449 -3.028095 -3.030636 -3.033074 -3.035418 -3.03767 -3.039837 -3.041924 -3.043936 -3.045877 -3.047754 -3.049571 -3.051333 -3.053045 -3.054711 -3.056336 -3.057925 -3.059482 -3.061012 -3.062519 -3.064007 -3.06548 -3.066943 -3.068399 -3.069853 -3.071309 -3.07277 -3.07424
3.370496 3.459062 3.539886 3.574858 3.488677 3.307369 3.208813 3.257573 3.356847 3.396343 3.390458 3.397794 3.43308 3.422465 3.328975 3.259746 3.294771 3.4061 3.508687 3.555528 3.566777 3.592712 3.625225 3.649528 3.665101 3.67425 3.697578 3.694903 3.634521 3.559955 3.532952 3.565178 3.613917 3.68081 3.731673 3.74041 3.710129 3.661554 3.584364 3.509529 3.443508 3.403764 3.468647 3.631154 3.795226 3.876354 3.897427 3.872887 3.782714 3.639242 3.554407 3.559274 3.576019 3.515164 3.38237 3.187573 3.105377 3.263175 3.698606 4.085026 4.078578 4.366275 4.856585 5.613585 6.35125 6.771959 6.498526 5.456153 4.167452 3.72785 4.362543 5.671012 7.004606 7.854293 8.196859 8.233692 8.179542 8.076464 7.791543 7.318941 6.825062 6.413306 6.095507 5.75262 5.28513 4.831256 4.573062 4.515481 4.4858 4.534911 4.548729 4.480427 4.393262 4.345273 4.333141 4.338158 4.31898 4.222873 4.095104 4.039686 4.009962 3.953125 3.85171 3.771757 3.787178 3.839912 3.872671 3.888234 3.881864 3.7584 3.569865 3.432343 3.400379 3.392456 3.379253 3.354473 3.321634 3.290055 3.295417 3.261813 3.281323 3.355426 3.421919 3.433371 3.410408 3.382679 3.375829 3.359721 3.327261 3.389123 3.511096 3.57194 3.511633 3.404876 3.309729 3.283936 3.331984 3.361073 3.287455 3.146105 3.058711 3.083079 3.13243 3.129555 3.109094 3.145245 3.159146 3.138938 3.061234 3.047442 3.098311 3.156095 3.140796 3.027829 2.931309 2.922299 2.979996 3.032492 3.042566 3.009662 2.95355 2.894155 2.872091 2.869669 2.844613 2.823182 2.823106 2.847724 2.879277 2.889008 2.885859 2.882756 2.872694 2.827107 2.777632 2.783959 2.856416 2.876856 2.838571 2.764366 2.689639 2.685449 2.714658 2.72083 2.711532 2.762001 2.799352 2.770192 2.674372 2.495767 2.285401 2.133994 2.118753 2.243077 2.403395 2.447934 2.299425 2.08374 2.051565 2.30247 2.63153 2.643563 2.523973 2.621768 2.943467 2.965443 2.653245 2.25869 1.991018 1.823074 1.777928 1.808421 1.791359 1.606649 1.048952 0.1653883 -0.7009017 -1.187702 -1.381862 -1.467342 -1.53523 -1.599009 -1.659816 -1.717817 -1.773176 -1.82605 -1.876585 -1.924914 -1.97116 -2.015433 -2.057837 -2.098464 -2.137403 -2.174731 -2.210526 -2.244856 -2.277786 -2.30938 -2.339694 -2.368784 -2.396704 -2.423503 -2.449229 -2.473927 -2.497643 -2.520417 -2.54229 -2.5633 -2.583486 -2.60288 -2.62152 -2.639435 -2.656658 -2.673219 -2.689146 -2.704465 -2.719204 -2.733387 -2.747036 -2.760175 -2.772826 -2.785007 -2.79674 -2.808041 -2.818928 -2.829418 -2.839526 -2.849268 -2.858657 -2.867707 -2.87643 -2.88484 -2.892946 -2.900762 -2.908295 -2.915558 -2.922558 -2.929306 -2.935808 -2.942075 -2.948113 -2.953929 -2.959532 -2.964926 -2.97012 -2.975119 -2.979928 -2.984555 -2.989004 -2.993281 -2.997391 -3.001339 -3.005132 -3.008773 -3.012269 -3.015623 -3.018842 -3.02193 -3.024893 -3.027735 -3.030462 -3.033079 -3.035592 -3.038004 -3.040323 -3.042551 -3.044695 -3.04676 -3.048751 -3.050672 -3.052529 -3.054326 -3.056068 -3.05776 -3.059407 -3.061012 -3.062581 -3.064117 -3.065626 -3.06711 -3.068575 -3.070024 -3.071462 -3.072892 -3.074319 -3.075745 -3.077175 -3.078613
3.46991 3.490109 3.523853 3.563896 3.506303 3.342911 3.255799 3.308118 3.386801 3.371769 3.323931 3.330598 3.403194 3.441055 3.404386 3.354255 3.358236 3.414572 3.45734 3.450327 3.416042 3.402514 3.433178 3.51674 3.640398 3.742878 3.791648 3.7778 3.710021 3.607232 3.55352 3.590131 3.641596 3.720119 3.78393 3.796148 3.757236 3.716639 3.675625 3.623875 3.552763 3.500119 3.542269 3.657878 3.779852 3.860959 3.89721 3.877623 3.787694 3.65811 3.585771 3.579439 3.557494 3.454794 3.310146 3.18047 3.178401 3.436605 3.964243 4.450349 4.606216 4.771368 5.048707 5.406375 5.636367 5.635737 5.207363 4.423323 3.667059 3.630399 4.450721 5.753976 6.965887 7.698697 7.844254 7.663325 7.634168 7.813024 7.879233 7.613636 7.068472 6.419586 5.782635 5.219787 4.784248 4.52004 4.434335 4.420542 4.405816 4.464156 4.489453 4.421016 4.311662 4.223704 4.149487 4.067696 3.979156 3.914207 3.897093 3.923921 3.938235 3.912562 3.827746 3.739972 3.723904 3.752662 3.768403 3.75565 3.716152 3.61265 3.493324 3.413918 3.386475 3.352957 3.31233 3.26431 3.229037 3.220517 3.217623 3.189766 3.199519 3.258104 3.313016 3.324593 3.303741 3.285883 3.280323 3.272907 3.282442 3.387294 3.481979 3.486063 3.432876 3.392787 3.337115 3.309059 3.340861 3.394995 3.346068 3.204402 3.11926 3.132405 3.174934 3.141816 3.07391 3.076895 3.070101 3.03298 2.99163 2.960334 2.967903 3.015669 3.047975 2.986732 2.904233 2.882421 2.916436 2.917713 2.921526 2.96463 3.019276 3.002553 2.949649 2.904388 2.879536 2.881351 2.880682 2.863487 2.832114 2.802062 2.823523 2.872649 2.865509 2.776868 2.727324 2.769759 2.83376 2.824214 2.78043 2.720832 2.650447 2.661256 2.725121 2.777 2.8026 2.856758 2.896914 2.899529 2.852766 2.692094 2.507656 2.425717 2.489196 2.603052 2.648714 2.538831 2.272029 2.004377 2.095031 2.616544 3.166355 3.157213 2.903342 2.852114 2.997224 2.854868 2.525687 2.218815 2.001263 1.872148 1.844494 1.848412 1.750646 1.439799 0.7569886 -0.1536796 -0.9093854 -1.283445 -1.422445 -1.49597 -1.5599 -1.621013 -1.679596 -1.735729 -1.789507 -1.841034 -1.890415 -1.93775 -1.983136 -2.026664 -2.068421 -2.108486 -2.146935 -2.183838 -2.219263 -2.253272 -2.285925 -2.317279 -2.347387 -2.376301 -2.40407 -2.430741 -2.456359 -2.480967 -2.504607 -2.527318 -2.549139 -2.570108 -2.590258 -2.609625 -2.628242 -2.646138 -2.663346 -2.679893 -2.695807 -2.711115 -2.725842 -2.740013 -2.75365 -2.766775 -2.77941 -2.791574 -2.803286 -2.814565 -2.825428 -2.835892 -2.845971 -2.855682 -2.865037 -2.874051 -2.882737 -2.891106 -2.89917 -2.906941 -2.914429 -2.921644 -2.928596 -2.935293 -2.941744 -2.947959 -2.953944 -2.959707 -2.965256 -2.970597 -2.975737 -2.980682 -2.985439 -2.990014 -2.994411 -2.998638 -3.002699 -3.0066 -3.010347 -3.013944 -3.017396 -3.02071 -3.023889 -3.026939 -3.029866 -3.032674 -3.035369 -3.037955 -3.040437 -3.042822 -3.045113 -3.047316 -3.049435 -3.051476 -3.053443 -3.055342 -3.057177 -3.058953 -3.060673 -3.062344 -3.063969 -3.065553 -3.0671 -3.068614 -3.0701 -3.071562 -3.073002 -3.074427 -3.075838 -3.077241 -3.078639 -3.080036 -3.081434 -3.082839
3.605809 3.535359 3.468027 3.482992 3.45423 3.319743 3.232587 3.263029 3.320851 3.269454 3.22268 3.264433 3.377715 3.450938 3.461725 3.443991 3.433139 3.439216 3.425309 3.378567 3.327064 3.294168 3.332841 3.448449 3.614929 3.758669 3.80978 3.764513 3.6656 3.544431 3.493481 3.554734 3.670853 3.782022 3.849764 3.848068 3.78395 3.725094 3.712814 3.72447 3.708889 3.674352 3.684713 3.709399 3.747991 3.78864 3.810014 3.801713 3.764514 3.690248 3.63539 3.602188 3.553429 3.450156 3.311715 3.218134 3.264975 3.591517 4.147343 4.624571 4.796672 4.928782 5.110245 5.186132 4.99005 4.680227 4.190899 3.716025 3.416413 3.647971 4.539299 5.77214 6.81339 7.365789 7.317055 6.984763 7.109851 7.582387 7.943649 7.805664 7.126638 6.174243 5.318516 4.775054 4.549808 4.405712 4.387559 4.387382 4.37007 4.406093 4.410301 4.337952 4.228781 4.123414 4.017571 3.893653 3.766472 3.701705 3.698543 3.73358 3.774233 3.788115 3.726962 3.636491 3.598825 3.606923 3.601532 3.552468 3.480757 3.424857 3.400807 3.388431 3.367654 3.339149 3.29518 3.249478 3.23445 3.242383 3.219663 3.161968 3.142765 3.182497 3.2454 3.281264 3.280547 3.292572 3.296634 3.278875 3.288995 3.403887 3.468479 3.434386 3.396879 3.385995 3.329245 3.301368 3.305169 3.3483 3.336734 3.247629 3.165802 3.163862 3.172483 3.117679 3.031009 2.996745 2.961682 2.933053 2.948219 2.94262 2.925843 2.936053 2.977616 2.996115 2.98008 2.960524 2.953701 2.916667 2.909188 2.955403 3.016647 2.995522 2.934026 2.884363 2.867182 2.89334 2.925119 2.92037 2.870903 2.825938 2.840178 2.871292 2.829877 2.728718 2.705518 2.772833 2.82196 2.808797 2.780415 2.741365 2.673252 2.661495 2.705911 2.769516 2.831939 2.90281 2.955528 2.981882 2.954473 2.787349 2.625088 2.622791 2.779732 2.915646 2.898339 2.679565 2.291618 1.886769 1.927584 2.537956 3.25245 3.362717 3.125261 2.979274 2.976045 2.762917 2.459391 2.185158 1.950704 1.856138 1.853981 1.804314 1.58089 1.14025 0.4006449 -0.4525767 -1.074534 -1.356596 -1.460559 -1.526627 -1.587158 -1.645547 -1.701811 -1.75596 -1.808034 -1.858091 -1.906195 -1.952419 -1.996835 -2.039513 -2.080523 -2.119931 -2.157801 -2.194194 -2.229169 -2.262781 -2.295085 -2.326131 -2.355968 -2.384644 -2.412204 -2.438691 -2.464149 -2.488616 -2.512133 -2.534736 -2.556463 -2.577349 -2.597427 -2.61673 -2.63529 -2.653136 -2.670297 -2.686802 -2.702678 -2.71795 -2.732642 -2.746778 -2.760382 -2.773474 -2.786076 -2.798206 -2.809883 -2.821127 -2.831953 -2.842378 -2.852417 -2.862087 -2.871399 -2.880369 -2.889009 -2.897331 -2.905347 -2.913068 -2.920505 -2.927668 -2.934566 -2.941209 -2.947607 -2.953766 -2.959696 -2.965403 -2.970896 -2.976182 -2.981266 -2.986157 -2.99086 -2.995381 -2.999727 -3.003902 -3.007914 -3.011766 -3.015465 -3.019016 -3.022425 -3.025696 -3.028834 -3.031846 -3.034735 -3.037507 -3.040167 -3.04272 -3.045172 -3.047526 -3.049788 -3.051964 -3.054056 -3.056072 -3.058014 -3.059889 -3.0617 -3.063452 -3.06515 -3.066798 -3.068401 -3.069962 -3.071486 -3.072977 -3.074438 -3.075875 -3.077291 -3.078689 -3.080074 -3.081449 -3.082817 -3.084183 -3.08555 -3.08692
3.708891 3.571941 3.407513 3.410983 3.378729 3.250877 3.159292 3.163186 3.186767 3.148404 3.145452 3.229801 3.348258 3.416541 3.451812 3.47191 3.469952 3.453722 3.414268 3.366428 3.35032 3.313917 3.349935 3.442888 3.575142 3.700613 3.734492 3.674218 3.582592 3.491083 3.475671 3.570512 3.723881 3.839349 3.882796 3.855135 3.77658 3.695518 3.697939 3.773937 3.831588 3.826391 3.806632 3.782577 3.760602 3.762408 3.761148 3.762183 3.790341 3.751023 3.693667 3.622247 3.556336 3.478179 3.333133 3.250898 3.351924 3.776405 4.334612 4.642963 4.555352 4.503002 4.609814 4.639493 4.371655 4.018132 3.675839 3.432548 3.352089 3.684076 4.58739 5.754667 6.63408 6.97898 6.793096 6.484357 6.630424 7.174667 7.583106 7.425454 6.659134 5.611603 4.771954 4.350791 4.226333 4.188605 4.192272 4.199061 4.206044 4.247558 4.231942 4.149129 4.039742 3.926131 3.838244 3.769927 3.703646 3.660212 3.617474 3.591689 3.609893 3.647234 3.607223 3.525909 3.487798 3.486021 3.477303 3.425584 3.351859 3.326923 3.353823 3.369715 3.352057 3.3433 3.31841 3.28897 3.295386 3.310868 3.278841 3.196388 3.152297 3.179464 3.249607 3.299194 3.311769 3.353545 3.367101 3.325567 3.307448 3.42186 3.481498 3.441921 3.417238 3.422086 3.393636 3.344077 3.29898 3.293512 3.298338 3.274605 3.225188 3.198408 3.161702 3.092269 3.014619 2.956233 2.895219 2.876554 2.941129 2.98383 2.975161 2.956036 2.98711 3.081775 3.139316 3.107244 3.023575 2.950016 2.934815 2.954128 2.945976 2.878276 2.803579 2.767682 2.780667 2.838638 2.918578 2.961337 2.92743 2.877802 2.872596 2.875136 2.818482 2.746612 2.740306 2.782648 2.809055 2.83855 2.864478 2.865995 2.807614 2.748982 2.712517 2.715106 2.767391 2.845549 2.932375 2.985583 2.932279 2.730456 2.567171 2.596511 2.791704 2.962035 2.948592 2.696679 2.226632 1.640163 1.47164 1.920032 2.579997 2.815305 2.763966 2.755512 2.825887 2.650791 2.322615 1.975718 1.701627 1.672965 1.745502 1.691911 1.39655 0.8968151 0.152696 -0.6461207 -1.185587 -1.414624 -1.498336 -1.559144 -1.616519 -1.672204 -1.72612 -1.778227 -1.82852 -1.877018 -1.923756 -1.968777 -2.01213 -2.053869 -2.094045 -2.132713 -2.169924 -2.205731 -2.240183 -2.273329 -2.305217 -2.335891 -2.365397 -2.393778 -2.421074 -2.447325 -2.472572 -2.496852 -2.5202 -2.542654 -2.564246 -2.585011 -2.60498 -2.624185 -2.642655 -2.660419 -2.677506 -2.693942 -2.709753 -2.724964 -2.739599 -2.753681 -2.767231 -2.780272 -2.792823 -2.804903 -2.816531 -2.827725 -2.838501 -2.848876 -2.858865 -2.868483 -2.877743 -2.886661 -2.895247 -2.903515 -2.911476 -2.919142 -2.926522 -2.933628 -2.94047 -2.947056 -2.953395 -2.959496 -2.965368 -2.971017 -2.976453 -2.981681 -2.986708 -2.991543 -2.99619 -3.000657 -3.004949 -3.009072 -3.013032 -3.016835 -3.020486 -3.02399 -3.027353 -3.03058 -3.033676 -3.036647 -3.039498 -3.042233 -3.044857 -3.047376 -3.049794 -3.052117 -3.054349 -3.056495 -3.05856 -3.060548 -3.062464 -3.064313 -3.066099 -3.067827 -3.0695 -3.071124 -3.072703 -3.074239 -3.075739 -3.077205 -3.078642 -3.080053 -3.081443 -3.082814 -3.084171 -3.085517 -3.086856 -3.08819 -3.089524 -3.090861
3.744011 3.622826 3.487258 3.411342 3.314083 3.189178 3.129812 3.142551 3.147122 3.120375 3.149289 3.243578 3.32745 3.372282 3.418313 3.460732 3.466752 3.450815 3.424908 3.397724 3.38323 3.385983 3.415937 3.462194 3.533821 3.621629 3.647799 3.608416 3.56019 3.513758 3.523719 3.618902 3.758783 3.851428 3.871522 3.837413 3.770556 3.683978 3.68734 3.793048 3.898283 3.921345 3.895685 3.85249 3.80865 3.792897 3.773004 3.759219 3.783988 3.791406 3.747442 3.657967 3.567594 3.47078 3.34074 3.269932 3.416386 3.928879 4.493931 4.645524 4.281282 3.975794 3.946853 3.998309 3.880301 3.698246 3.555328 3.478052 3.463526 3.770761 4.591268 5.619011 6.306485 6.467153 6.181462 5.850967 5.917759 6.318781 6.559547 6.317159 5.648655 4.860285 4.304568 4.08314 4.029552 4.008278 3.978756 3.940366 3.902568 3.954062 3.939822 3.871693 3.783228 3.688342 3.663438 3.703156 3.730778 3.711428 3.644831 3.577156 3.552994 3.549289 3.510782 3.458083 3.444514 3.459991 3.467647 3.431053 3.365131 3.355877 3.38769 3.391792 3.350255 3.334056 3.318934 3.303117 3.317281 3.340983 3.340097 3.275244 3.236747 3.252364 3.302269 3.334743 3.352812 3.410413 3.431698 3.380502 3.331225 3.414707 3.436901 3.378865 3.362422 3.40753 3.441959 3.412978 3.328371 3.271696 3.269565 3.278065 3.248723 3.203891 3.134598 3.059093 3.010877 2.973794 2.918853 2.893739 2.951846 3.018793 3.047822 3.042292 3.054314 3.145145 3.210593 3.156495 3.014315 2.917931 2.900497 2.896618 2.833592 2.732367 2.65361 2.642305 2.700062 2.788504 2.888051 2.948086 2.922965 2.866668 2.856968 2.871252 2.844905 2.808508 2.791994 2.78636 2.793447 2.860108 2.934216 3.006698 3.001429 2.935557 2.822831 2.729338 2.716123 2.737129 2.788621 2.819066 2.744411 2.565922 2.441283 2.467226 2.605968 2.744291 2.759622 2.57001 2.114993 1.41032 1.041557 1.268607 1.748237 1.95407 1.982491 2.119789 2.37502 2.334388 2.028801 1.648977 1.392654 1.442096 1.612128 1.620954 1.327582 0.8032045 0.03414047 -0.7611756 -1.262012 -1.463557 -1.536396 -1.593172 -1.64757 -1.700624 -1.752213 -1.802262 -1.850734 -1.897619 -1.942925 -1.986673 -2.028892 -2.069617 -2.108887 -2.146743 -2.183226 -2.218379 -2.252242 -2.284859 -2.31627 -2.346515 -2.375634 -2.403665 -2.430645 -2.456613 -2.481602 -2.505649 -2.528788 -2.55105 -2.57247 -2.593077 -2.612902 -2.631976 -2.650326 -2.667979 -2.684963 -2.701304 -2.717026 -2.732153 -2.746709 -2.760716 -2.774194 -2.787166 -2.799649 -2.811664 -2.823228 -2.834359 -2.845073 -2.855386 -2.865314 -2.874871 -2.88407 -2.892926 -2.901452 -2.909659 -2.917558 -2.925163 -2.932482 -2.939527 -2.946306 -2.952831 -2.959109 -2.965149 -2.970959 -2.976548 -2.981924 -2.987092 -2.992062 -2.996838 -3.001428 -3.005839 -3.010076 -3.014146 -3.018054 -3.021805 -3.025406 -3.028863 -3.032179 -3.035362 -3.038415 -3.041344 -3.044154 -3.04685 -3.049438 -3.051921 -3.054305 -3.056595 -3.058795 -3.060911 -3.062946 -3.064905 -3.066794 -3.068616 -3.070375 -3.072077 -3.073725 -3.075323 -3.076876 -3.078387 -3.079862 -3.081302 -3.082713 -3.084098 -3.08546 -3.086804 -3.088132 -3.089449 -3.090757 -3.092059 -3.09336 -3.094662
3.71662 3.628586 3.519647 3.395846 3.252875 3.152595 3.146523 3.187562 3.190747 3.172318 3.204914 3.283497 3.335779 3.363304 3.401669 3.436932 3.455158 3.463578 3.483307 3.49946 3.492374 3.494239 3.508003 3.520872 3.538693 3.581999 3.60522 3.600217 3.593504 3.577529 3.589389 3.652214 3.743658 3.806262 3.823103 3.807461 3.768194 3.697111 3.709921 3.833062 3.965274 3.995845 3.941603 3.870142 3.832882 3.823673 3.799898 3.774565 3.789402 3.818036 3.804715 3.730038 3.623849 3.509851 3.385787 3.321637 3.456403 3.929651 4.416015 4.472223 4.012548 3.579972 3.438057 3.496107 3.542575 3.550007 3.594267 3.676654 3.655243 3.894247 4.573634 5.406854 5.93527 5.999388 5.633968 5.188549 5.066766 5.224869 5.269248 5.022491 4.619998 4.251163 4.013119 3.959427 3.9634 3.94777 3.891368 3.809238 3.733176 3.703634 3.668144 3.625189 3.583035 3.542646 3.593818 3.711896 3.774131 3.738729 3.667012 3.602479 3.544603 3.495273 3.455586 3.434107 3.442222 3.480145 3.506512 3.489367 3.447282 3.446195 3.467221 3.443249 3.357656 3.295498 3.27007 3.271402 3.299837 3.353992 3.374042 3.343559 3.327975 3.33349 3.356287 3.374799 3.391666 3.44593 3.462522 3.415646 3.366933 3.370824 3.316788 3.218475 3.203682 3.318228 3.444724 3.463309 3.365556 3.278265 3.248035 3.245533 3.22649 3.187945 3.114144 3.03906 3.015171 3.020899 3.003453 2.973522 2.980945 3.023048 3.075739 3.099842 3.089276 3.108743 3.127645 3.065415 2.928347 2.852317 2.856699 2.850675 2.751844 2.623382 2.546801 2.565036 2.660694 2.767467 2.856488 2.894256 2.847186 2.776422 2.780982 2.844396 2.875317 2.861108 2.817354 2.772737 2.76911 2.843265 2.953666 3.065365 3.127305 3.120567 3.02644 2.898897 2.805732 2.717932 2.661071 2.612509 2.520751 2.416077 2.37768 2.406854 2.448744 2.499652 2.55362 2.494943 2.11304 1.329551 0.8001346 0.8584235 1.175318 1.218924 1.128408 1.263665 1.664726 1.829125 1.662812 1.360629 1.192917 1.313799 1.543852 1.609988 1.34925 0.7871883 -0.05247962 -0.8755555 -1.336195 -1.510348 -1.575082 -1.628371 -1.679972 -1.7305 -1.779814 -1.827821 -1.874462 -1.919705 -1.963538 -2.005962 -2.046991 -2.086644 -2.124948 -2.161931 -2.197625 -2.232063 -2.26528 -2.297311 -2.32819 -2.357953 -2.386633 -2.414265 -2.440883 -2.46652 -2.491209 -2.514982 -2.53787 -2.559904 -2.581114 -2.60153 -2.621179 -2.64009 -2.65829 -2.675805 -2.69266 -2.70888 -2.72449 -2.739511 -2.753967 -2.767879 -2.781267 -2.794152 -2.806552 -2.818486 -2.829972 -2.841027 -2.851667 -2.861907 -2.871763 -2.881249 -2.890379 -2.899166 -2.907623 -2.915761 -2.923594 -2.931131 -2.938384 -2.945362 -2.952076 -2.958535 -2.964748 -2.970723 -2.97647 -2.981996 -2.987309 -2.992416 -2.997325 -3.002042 -3.006573 -3.010927 -3.015107 -3.019122 -3.022976 -3.026676 -3.030226 -3.033634 -3.036903 -3.040039 -3.043048 -3.045934 -3.048703 -3.05136 -3.053909 -3.056355 -3.058704 -3.060959 -3.063127 -3.06521 -3.067214 -3.069144 -3.071003 -3.072797 -3.074528 -3.076203 -3.077824 -3.079396 -3.080922 -3.082407 -3.083855 -3.085269 -3.086653 -3.088011 -3.089345 -3.09066 -3.091959 -3.093246 -3.094522 -3.095793 -3.097061 -3.098328
3.639403 3.575355 3.477615 3.337849 3.198515 3.133308 3.15876 3.215544 3.236463 3.239786 3.260831 3.320859 3.371692 3.395679 3.412259 3.418244 3.464768 3.499787 3.553774 3.598002 3.587272 3.570189 3.580203 3.593768 3.581948 3.58236 3.592689 3.600749 3.602152 3.598405 3.611963 3.648634 3.69877 3.74352 3.768977 3.774981 3.761091 3.722999 3.761428 3.905276 4.056209 4.072718 3.952573 3.82437 3.802647 3.814609 3.798981 3.772462 3.785456 3.831841 3.858715 3.810332 3.691412 3.56814 3.46488 3.425508 3.498648 3.78377 4.052489 4.022402 3.642665 3.285428 3.150441 3.216044 3.34271 3.45074 3.612771 3.867811 3.770114 3.977573 4.549759 5.231226 5.747541 5.842672 5.409176 4.774327 4.423419 4.361835 4.310984 4.178362 4.06714 4.016345 3.892449 3.883363 3.927689 3.943686 3.898729 3.79206 3.657218 3.562798 3.507976 3.486108 3.492583 3.52074 3.626079 3.750676 3.767786 3.677704 3.596076 3.558694 3.518397 3.471317 3.438734 3.425974 3.431438 3.471244 3.501639 3.493712 3.4689 3.478032 3.49684 3.454741 3.341846 3.235738 3.201534 3.229766 3.274958 3.328413 3.354737 3.357259 3.369488 3.372743 3.374119 3.38264 3.409467 3.456122 3.453369 3.395092 3.336592 3.286524 3.183412 3.059326 3.042035 3.211407 3.404338 3.462638 3.380536 3.292294 3.224853 3.188035 3.192213 3.191879 3.136551 3.05344 3.018483 3.040792 3.072857 3.071913 3.037872 3.017574 3.040954 3.0707 3.053254 3.011907 2.990683 2.941726 2.862755 2.844988 2.89087 2.890108 2.744087 2.571474 2.495472 2.542935 2.653078 2.754825 2.824034 2.84082 2.759979 2.674967 2.694011 2.804528 2.891743 2.887441 2.819473 2.7494 2.727527 2.771445 2.865009 2.979132 3.084965 3.180093 3.214832 3.153771 3.003868 2.808454 2.647469 2.524061 2.408693 2.359083 2.393852 2.4439 2.436367 2.428656 2.526246 2.596681 2.293161 1.439931 0.7482074 0.6624791 0.8881364 0.791039 0.5575982 0.6377342 1.122047 1.483406 1.473744 1.254803 1.162401 1.323109 1.538712 1.574203 1.294077 0.6619296 -0.235146 -1.038394 -1.422941 -1.558245 -1.614456 -1.66447 -1.713451 -1.761569 -1.808682 -1.854685 -1.899506 -1.943099 -1.985435 -2.026502 -2.0663 -2.104835 -2.142123 -2.178183 -2.213037 -2.24671 -2.279229 -2.310624 -2.340922 -2.370153 -2.398348 -2.425537 -2.451749 -2.477014 -2.501362 -2.524822 -2.547422 -2.569192 -2.590159 -2.61035 -2.629792 -2.648512 -2.666534 -2.683883 -2.700585 -2.716661 -2.732136 -2.74703 -2.761366 -2.775164 -2.788444 -2.801226 -2.813527 -2.825366 -2.836761 -2.847727 -2.85828 -2.868437 -2.878211 -2.887617 -2.896668 -2.905378 -2.913759 -2.921823 -2.929582 -2.937046 -2.944227 -2.951134 -2.957778 -2.964167 -2.970311 -2.97622 -2.9819 -2.98736 -2.992608 -2.997652 -3.002497 -3.007153 -3.011624 -3.015919 -3.020042 -3.024 -3.0278 -3.031446 -3.034945 -3.038302 -3.041523 -3.044612 -3.047575 -3.050417 -3.053144 -3.05576 -3.058269 -3.060678 -3.06299 -3.06521 -3.067343 -3.069394 -3.071366 -3.073264 -3.075094 -3.076857 -3.07856 -3.080206 -3.0818 -3.083344 -3.084843 -3.086301 -3.087721 -3.089108 -3.090464 -3.091793 -3.093099 -3.094385 -3.095655 -3.09691 -3.098156 -3.099394 -3.100628 -3.10186
3.499294 3.46365 3.393786 3.274848 3.161478 3.119795 3.14992 3.208143 3.257033 3.304533 3.31441 3.357469 3.40958 3.439517 3.46348 3.487083 3.512465 3.511733 3.539405 3.577944 3.566238 3.539544 3.548344 3.573434 3.569139 3.561615 3.561127 3.554516 3.535501 3.535935 3.570949 3.619507 3.670227 3.718287 3.748343 3.765077 3.779063 3.777138 3.819053 3.939442 4.076733 4.083781 3.928032 3.765625 3.763764 3.799167 3.797009 3.779441 3.801077 3.852765 3.892741 3.845844 3.713748 3.590899 3.517597 3.512646 3.57197 3.677365 3.70537 3.585217 3.31574 3.107615 3.044211 3.117989 3.251605 3.379806 3.505495 3.635904 3.69091 4.012232 4.579106 5.246128 5.841456 6.032027 5.562154 4.762175 4.221399 3.999661 3.897377 3.854473 3.880763 3.891301 3.821021 3.790046 3.829926 3.871068 3.865476 3.773967 3.609149 3.480391 3.420106 3.407554 3.422735 3.482952 3.604555 3.704608 3.676045 3.555479 3.461061 3.440181 3.451964 3.449314 3.42592 3.402436 3.404843 3.444075 3.46931 3.452577 3.412621 3.402244 3.41033 3.36388 3.275119 3.180617 3.164762 3.220889 3.278953 3.306709 3.313331 3.335124 3.383377 3.397791 3.370141 3.347089 3.384379 3.429597 3.419997 3.361444 3.300809 3.23633 3.131536 3.018453 3.002173 3.165313 3.352893 3.418811 3.361949 3.301335 3.214552 3.146203 3.180447 3.230953 3.195657 3.079511 2.991584 2.992301 3.072526 3.139944 3.109838 3.031906 2.993133 3.009717 3.027243 3.001066 2.962867 2.924564 2.897135 2.915814 2.976842 2.970023 2.772478 2.566198 2.498892 2.568544 2.668197 2.733647 2.775216 2.788054 2.7372 2.661268 2.668243 2.777467 2.893459 2.908219 2.837029 2.746136 2.694629 2.709155 2.762861 2.828041 2.923601 3.099513 3.265306 3.280536 3.08955 2.81778 2.620077 2.49866 2.386338 2.344529 2.375033 2.422288 2.437712 2.45477 2.569337 2.693147 2.499376 1.698202 0.9029989 0.6442134 0.7856088 0.6862531 0.5129193 0.6888605 1.274971 1.716227 1.684562 1.376542 1.231768 1.368603 1.518997 1.427523 1.002938 0.2741888 -0.5736058 -1.229484 -1.506888 -1.604144 -1.654098 -1.701259 -1.747787 -1.793618 -1.838611 -1.882661 -1.925688 -1.967636 -2.008467 -2.048157 -2.086695 -2.124079 -2.160313 -2.195409 -2.229379 -2.262243 -2.29402 -2.324734 -2.354407 -2.383065 -2.410733 -2.437436 -2.463202 -2.488057 -2.512027 -2.535138 -2.557417 -2.57889 -2.599582 -2.619518 -2.638725 -2.657225 -2.675043 -2.692202 -2.708725 -2.724636 -2.739954 -2.754701 -2.768898 -2.782565 -2.79572 -2.808383 -2.82057 -2.832301 -2.84359 -2.854455 -2.864912 -2.874974 -2.884656 -2.893973 -2.902937 -2.911562 -2.91986 -2.927842 -2.935521 -2.942907 -2.95001 -2.956842 -2.963411 -2.969727 -2.9758 -2.981637 -2.987247 -2.992639 -2.99782 -3.002798 -3.007579 -3.012171 -3.016581 -3.020814 -3.024879 -3.02878 -3.032523 -3.036115 -3.039561 -3.042867 -3.046038 -3.049079 -3.051996 -3.054793 -3.057476 -3.06005 -3.062519 -3.064889 -3.067163 -3.069347 -3.071445 -3.073461 -3.075401 -3.077267 -3.079065 -3.080798 -3.082471 -3.084088 -3.085652 -3.087168 -3.088639 -3.090069 -3.091461 -3.092819 -3.094147 -3.095448 -3.096725 -3.097981 -3.09922 -3.100445 -3.101659 -3.102864 -3.104064 -3.105261
3.431201 3.4126 3.358444 3.256452 3.141399 3.105257 3.137723 3.196266 3.254353 3.310771 3.353463 3.408581 3.467333 3.512352 3.556219 3.584487 3.564543 3.494009 3.463238 3.484066 3.491892 3.472384 3.468431 3.490514 3.514489 3.533441 3.539355 3.523834 3.493843 3.483202 3.504793 3.546734 3.599039 3.660357 3.712797 3.759324 3.809639 3.82298 3.821676 3.859989 3.942724 3.964375 3.856864 3.728865 3.758511 3.805954 3.813669 3.81226 3.848119 3.892344 3.909039 3.857704 3.744945 3.64522 3.597106 3.616411 3.66294 3.639137 3.486399 3.32473 3.134948 3.02608 2.994606 3.053806 3.194241 3.458727 3.728603 3.902928 4.020976 4.374932 4.892159 5.497147 6.083889 6.221462 5.658694 4.780101 4.206915 3.976345 3.844874 3.811999 3.849043 3.841751 3.756292 3.682407 3.686661 3.72434 3.764414 3.731344 3.588157 3.454307 3.394063 3.36848 3.337914 3.368565 3.476498 3.574169 3.556408 3.445282 3.346068 3.326692 3.367493 3.386592 3.362021 3.340307 3.36896 3.438717 3.457791 3.417792 3.362877 3.33843 3.339953 3.311582 3.23376 3.155287 3.130523 3.173954 3.245231 3.269917 3.255847 3.267224 3.329128 3.363535 3.33792 3.296787 3.335083 3.355675 3.345876 3.31788 3.279573 3.234045 3.151153 3.062558 3.045035 3.162498 3.309217 3.366294 3.316292 3.284486 3.20514 3.11759 3.146081 3.235487 3.221515 3.080658 2.943174 2.915358 3.024734 3.151063 3.151749 3.069734 3.005002 3.001488 3.024253 3.012128 2.980828 2.958271 2.956169 2.97364 3.007278 2.972937 2.795904 2.618397 2.56731 2.624922 2.68572 2.706138 2.740072 2.794508 2.805545 2.740878 2.696764 2.749342 2.859415 2.891721 2.833498 2.752092 2.712935 2.726866 2.742845 2.74269 2.804831 3.007472 3.224306 3.259663 3.034411 2.71913 2.5256 2.445989 2.360188 2.313469 2.298685 2.309589 2.347198 2.386968 2.457592 2.555729 2.501698 1.965253 1.294209 0.9444847 0.9650489 0.9078877 0.8399737 1.069793 1.663792 2.128054 2.033385 1.580813 1.326141 1.414174 1.498808 1.249018 0.6029649 -0.2361213 -0.9695856 -1.41248 -1.581368 -1.648157 -1.69391 -1.738574 -1.782805 -1.826465 -1.869425 -1.911579 -1.952847 -1.993168 -2.032495 -2.0708 -2.108061 -2.144268 -2.179419 -2.213517 -2.246568 -2.278586 -2.309583 -2.339578 -2.368588 -2.396634 -2.423737 -2.449919 -2.475204 -2.499613 -2.52317 -2.5459 -2.567826 -2.58897 -2.609358 -2.629012 -2.647955 -2.666211 -2.6838 -2.700746 -2.717069 -2.732792 -2.747934 -2.762515 -2.776555 -2.790073 -2.803087 -2.815616 -2.827676 -2.839284 -2.850457 -2.861209 -2.871557 -2.881515 -2.891096 -2.900315 -2.909184 -2.917716 -2.925923 -2.933818 -2.941411 -2.948712 -2.955734 -2.962485 -2.968975 -2.975214 -2.981211 -2.986974 -2.992512 -2.997833 -3.002944 -3.007854 -3.012568 -3.017095 -3.021442 -3.025614 -3.029617 -3.033459 -3.037146 -3.040682 -3.044074 -3.047328 -3.050448 -3.05344 -3.056309 -3.059061 -3.0617 -3.064231 -3.066659 -3.068988 -3.071224 -3.07337 -3.075432 -3.077414 -3.079319 -3.081152 -3.082918 -3.08462 -3.086262 -3.087849 -3.089384 -3.09087 -3.092312 -3.093713 -3.095076 -3.096406 -3.097705 -3.098976 -3.100224 -3.10145 -3.102658 -3.103852 -3.105033 -3.106206 -3.107372 -3.108534
3.419426 3.408748 3.35356 3.266675 3.125797 3.084879 3.119513 3.176307 3.228676 3.2843 3.351335 3.430284 3.50314 3.562272 3.606896 3.612688 3.553556 3.455946 3.407892 3.426437 3.452958 3.431633 3.399709 3.400991 3.439429 3.476208 3.49569 3.503775 3.507144 3.49591 3.483457 3.485166 3.512681 3.573107 3.649153 3.726037 3.807691 3.817284 3.765131 3.722283 3.744969 3.79417 3.783731 3.745642 3.775098 3.807974 3.81981 3.841874 3.894804 3.918841 3.899373 3.847667 3.786981 3.742374 3.721383 3.743649 3.755393 3.655869 3.454705 3.259987 3.09381 2.990288 2.926532 2.939367 3.143801 3.692874 4.279634 4.63545 4.797435 5.131968 5.556009 5.984282 6.318481 6.156416 5.422431 4.567259 4.128554 4.045867 3.901399 3.855798 3.854388 3.784429 3.652551 3.54517 3.521548 3.556109 3.635485 3.6701 3.580346 3.458855 3.392141 3.337671 3.257586 3.2415 3.319462 3.418221 3.433818 3.35821 3.282849 3.270309 3.303339 3.312439 3.288112 3.290736 3.364403 3.440425 3.439077 3.385001 3.352717 3.351402 3.343894 3.298585 3.224583 3.160217 3.110194 3.116218 3.195842 3.237273 3.211279 3.198533 3.250673 3.29944 3.30441 3.288205 3.295582 3.278843 3.275995 3.287686 3.264144 3.240211 3.169903 3.093947 3.068622 3.149501 3.270103 3.323145 3.248765 3.199458 3.132099 3.06161 3.082442 3.173969 3.169403 3.033541 2.890778 2.856117 2.973707 3.127768 3.167493 3.124665 3.074159 3.04566 3.022834 2.993918 2.975744 2.974828 2.976597 2.976677 2.972242 2.924348 2.814012 2.734467 2.730582 2.757407 2.754848 2.71486 2.722685 2.797648 2.859657 2.823133 2.748076 2.741485 2.821551 2.867516 2.831699 2.783176 2.789609 2.823651 2.826839 2.782099 2.807945 2.974064 3.155585 3.169529 2.946394 2.659254 2.497559 2.43731 2.353556 2.289704 2.25067 2.264176 2.331599 2.339299 2.2981 2.305446 2.342375 2.137992 1.749999 1.427821 1.314918 1.242989 1.179632 1.321718 1.79899 2.262243 2.197358 1.726347 1.415873 1.432573 1.407039 1.001293 0.2063433 -0.6670338 -1.275167 -1.547242 -1.642643 -1.691109 -1.733891 -1.776294 -1.818364 -1.859963 -1.900972 -1.941291 -1.98084 -2.019556 -2.057391 -2.094309 -2.130283 -2.165298 -2.199345 -2.232419 -2.264524 -2.295665 -2.32585 -2.355093 -2.383407 -2.410808 -2.437313 -2.462941 -2.487711 -2.511643 -2.534758 -2.557076 -2.578619 -2.599408 -2.619464 -2.63881 -2.657465 -2.675451 -2.692789 -2.7095 -2.725602 -2.741117 -2.756064 -2.770461 -2.784328 -2.797681 -2.810539 -2.82292 -2.834838 -2.846312 -2.857355 -2.867984 -2.878213 -2.888056 -2.897527 -2.906639 -2.915405 -2.923838 -2.931948 -2.939748 -2.947249 -2.954462 -2.961396 -2.968062 -2.97447 -2.980628 -2.986546 -2.992231 -2.997694 -3.002941 -3.00798 -3.012819 -3.017466 -3.021926 -3.026207 -3.030315 -3.034257 -3.038039 -3.041667 -3.045147 -3.048484 -3.051684 -3.054753 -3.057695 -3.060516 -3.063221 -3.065814 -3.068302 -3.070687 -3.072976 -3.075172 -3.077281 -3.079305 -3.081251 -3.083122 -3.084921 -3.086654 -3.088324 -3.089935 -3.09149 -3.092994 -3.094451 -3.095863 -3.097234 -3.098569 -3.099869 -3.101138 -3.10238 -3.103598 -3.104794 -3.105971 -3.107133 -3.108283 -3.109422 -3.110554 -3.111681
3.368551 3.369158 3.297781 3.187177 3.085019 3.058575 3.087985 3.130733 3.164369 3.205183 3.277579 3.372455 3.45528 3.510676 3.520538 3.488369 3.437304 3.395416 3.402439 3.438629 3.459488 3.414136 3.358327 3.345454 3.370872 3.390978 3.418212 3.473337 3.537089 3.546323 3.518089 3.48564 3.474576 3.512688 3.591201 3.664962 3.763156 3.762753 3.693465 3.62338 3.612468 3.674408 3.7267 3.743683 3.764125 3.782799 3.802402 3.847251 3.913274 3.921114 3.87289 3.821586 3.812243 3.834764 3.837041 3.849071 3.806784 3.652829 3.441415 3.27379 3.119195 2.955432 2.79727 2.782742 3.114488 3.939274 4.75594 5.270178 5.532357 5.92371 6.297605 6.477083 6.366236 5.775871 4.879708 4.123997 3.8397 3.824692 3.841363 3.892507 3.895039 3.745033 3.53375 3.396276 3.378485 3.433806 3.531043 3.592096 3.544305 3.437606 3.358986 3.27676 3.199909 3.181389 3.229124 3.288116 3.292726 3.255438 3.241185 3.2596 3.270785 3.26303 3.247282 3.268947 3.344591 3.392017 3.368532 3.330629 3.353596 3.400424 3.383292 3.299781 3.219875 3.17636 3.122488 3.101003 3.172365 3.228828 3.202222 3.180655 3.215276 3.254259 3.267166 3.263583 3.26578 3.253357 3.271266 3.310026 3.306448 3.252824 3.173038 3.100111 3.066006 3.137597 3.263068 3.303805 3.183359 3.065816 3.001715 2.990363 3.028443 3.090429 3.071881 2.960627 2.850255 2.827425 2.936308 3.091425 3.166279 3.165622 3.134025 3.081666 3.006645 2.955267 2.948223 2.968539 2.969195 2.959432 2.927713 2.868573 2.819803 2.861557 2.936464 2.946165 2.890214 2.782923 2.724037 2.756179 2.826807 2.835434 2.784993 2.763374 2.822994 2.867563 2.847259 2.821616 2.858805 2.907279 2.911902 2.87166 2.866998 2.959851 3.07112 3.075163 2.912235 2.725407 2.606083 2.514723 2.379685 2.272135 2.252166 2.359176 2.513677 2.461224 2.258446 2.115072 2.132061 2.132789 2.003384 1.784845 1.586723 1.431366 1.286413 1.294666 1.612809 2.028085 2.074703 1.760824 1.489064 1.401826 1.193225 0.650417 -0.1453146 -0.9341533 -1.432918 -1.624608 -1.691939 -1.733554 -1.774023 -1.814322 -1.854351 -1.893987 -1.933123 -1.971665 -2.009538 -2.046679 -2.083036 -2.118573 -2.153258 -2.187071 -2.219998 -2.252031 -2.283167 -2.313406 -2.342753 -2.371217 -2.398806 -2.425532 -2.451411 -2.476455 -2.500682 -2.524109 -2.546753 -2.568633 -2.589767 -2.610174 -2.629875 -2.648888 -2.667232 -2.684927 -2.701993 -2.718447 -2.73431 -2.749599 -2.764333 -2.778529 -2.792206 -2.80538 -2.818068 -2.830286 -2.842051 -2.853378 -2.864281 -2.874775 -2.884876 -2.894595 -2.903947 -2.912945 -2.9216 -2.929925 -2.937932 -2.945632 -2.953036 -2.960154 -2.966996 -2.973573 -2.979893 -2.985967 -2.991802 -2.997408 -3.002792 -3.007962 -3.012928 -3.017694 -3.02227 -3.026661 -3.030875 -3.034919 -3.038798 -3.042519 -3.046087 -3.049509 -3.05279 -3.055936 -3.058952 -3.061843 -3.064615 -3.067272 -3.06982 -3.072263 -3.074605 -3.076853 -3.079009 -3.081078 -3.083065 -3.084974 -3.086809 -3.088574 -3.090273 -3.09191 -3.093489 -3.095013 -3.096486 -3.097912 -3.099294 -3.100636 -3.10194 -3.10321 -3.10445 -3.105662 -3.106849 -3.108014 -3.109161 -3.110291 -3.111408 -3.112515 -3.113613 -3.114705
3.284868 3.314324 3.254682 3.149913 3.081028 3.060398 3.072968 3.09709 3.114167 3.135261 3.192344 3.273842 3.335581 3.36272 3.329704 3.281479 3.28098 3.313812 3.384712 3.430115 3.433838 3.371904 3.323658 3.327175 3.346888 3.353555 3.389798 3.472111 3.553939 3.56885 3.547242 3.51131 3.474787 3.494749 3.587384 3.692026 3.750137 3.720397 3.648562 3.581331 3.555231 3.613178 3.688809 3.732981 3.759857 3.792792 3.825308 3.865252 3.909896 3.90062 3.849861 3.810344 3.816031 3.83801 3.852608 3.847459 3.775455 3.636239 3.443589 3.326349 3.190686 2.97559 2.7119 2.687606 3.12706 4.009988 4.720023 5.286042 5.727961 6.28727 6.684237 6.638659 6.100006 5.17711 4.24798 3.653456 3.507899 3.58153 3.745 3.919942 3.956773 3.749788 3.465901 3.309317 3.313737 3.394786 3.473846 3.500154 3.454456 3.352716 3.253027 3.181867 3.160466 3.183914 3.205637 3.184551 3.124027 3.112618 3.176468 3.244056 3.241913 3.21986 3.208553 3.234861 3.289521 3.306687 3.282103 3.274128 3.327507 3.392023 3.3608 3.257844 3.184495 3.167378 3.125339 3.085287 3.129577 3.191337 3.20873 3.205725 3.214892 3.221036 3.225816 3.238237 3.272774 3.294805 3.314577 3.3306 3.318507 3.270806 3.223794 3.183552 3.151194 3.195945 3.294293 3.314627 3.168852 3.004393 2.957217 3.015687 3.073937 3.07895 3.024626 2.929369 2.8366 2.811668 2.89169 3.023533 3.115617 3.143622 3.126392 3.072263 2.994983 2.953719 2.949367 2.97924 2.986274 2.981755 2.936355 2.853799 2.807951 2.905567 3.035845 3.070549 2.993378 2.85841 2.752971 2.7346 2.78501 2.803795 2.769362 2.748226 2.797502 2.838732 2.818137 2.788575 2.823776 2.880822 2.904877 2.876763 2.843683 2.883876 2.943265 2.970877 2.893824 2.790081 2.675349 2.531823 2.33841 2.179427 2.176217 2.38775 2.654719 2.573815 2.20737 1.87938 1.815371 1.879169 1.912981 1.833866 1.647381 1.423597 1.238668 1.21206 1.415057 1.711745 1.830261 1.710682 1.505838 1.303778 0.9259073 0.3002076 -0.4446459 -1.121143 -1.529357 -1.680595 -1.737131 -1.775835 -1.814265 -1.85258 -1.890672 -1.928432 -1.965766 -2.002588 -2.038827 -2.074421 -2.109322 -2.143487 -2.176885 -2.209493 -2.241291 -2.272269 -2.302418 -2.331737 -2.360224 -2.387885 -2.414726 -2.440754 -2.46598 -2.490416 -2.514075 -2.536971 -2.55912 -2.580537 -2.601238 -2.621242 -2.640564 -2.659223 -2.677235 -2.694619 -2.711392 -2.727573 -2.743177 -2.758223 -2.772728 -2.786708 -2.80018 -2.81316 -2.825665 -2.837708 -2.849307 -2.860476 -2.871228 -2.881578 -2.89154 -2.901127 -2.910352 -2.919227 -2.927765 -2.935976 -2.943873 -2.951467 -2.958768 -2.965787 -2.972533 -2.979016 -2.985245 -2.99123 -2.99698 -3.002502 -3.007805 -3.012897 -3.017786 -3.022478 -3.026981 -3.031302 -3.035448 -3.039425 -3.043239 -3.046897 -3.050405 -3.053768 -3.056992 -3.060083 -3.063046 -3.065885 -3.068607 -3.071216 -3.073717 -3.076114 -3.078413 -3.080618 -3.082733 -3.084763 -3.086712 -3.088584 -3.090383 -3.092112 -3.093777 -3.095381 -3.096927 -3.098419 -3.099861 -3.101255 -3.102607 -3.103918 -3.105192 -3.106432 -3.107641 -3.108823 -3.10998 -3.111114 -3.11223 -3.113328 -3.114413 -3.115487 -3.116551 -3.117609
